6.8947731347365 25.061773134736498 4.332680595790492
24.9517731347365 1.0442268652635036 0.07722686526350486
31.373773134736503 23.050226865263504 19.6682268652635
31.565680595790496 27.4537731347365 31.4057731347365
15.1222268652635 20.3737731347365 27.3427731347365
27.1887731347365 6.9557731347365 9.233226865263497
15.1537731347365 8.446680595790497 18.748680595790503
29.9357731347365 27.0672268652635 21.5937731347365
11.733226865263497 30.1717731347365 8.782680595790495
0.2416805957904984 22.1867731347365 8.334226865263496
28.7973194042095 6.005773134736501 22.1742268652635
6.357773134736501 9.742226865263497 28.8227731347365
8.7592268652635 14.483680595790503 14.5427731347365
32.1537731347365 26.9033194042095 19.8947731347365
24.2067731347365 7.379226865263497 18.8112268652635
25.2557731347365 10.2746805957905 0.9602268652635004
16.1937731347365 9.175680595790496 13.6282268652635
20.577680595790497 28.494226865263506 5.341226865263501
3.3977731347365 11.039226865263501 6.396773134736501
31.6706805957905 4.033226865263501 0.8682268652635017
17.9287731347365 26.416773134736502 13.635226865263498
3.2092268652634957 15.816226865263495 28.8363194042095
25.4477731347365 28.693226865263505 8.529773134736502
30.988773134736498 8.1417731347365 0.08668059579049725
20.6413194042095 7.642226865263503 15.1477731347365
28.0972268652635 22.603680595790507 4.122680595790499
15.685226865263495 26.5757731347365 13.5367731347365
31.9092268652635 3.6287731347365 26.5137731347365
26.632226865263497 30.7157731347365 11.005226865263502
16.4147731347365 19.366588056844506 6.158134326317509
7.876226865263497 4.6697731347365 8.038226865263503
12.1207731347365 25.288226865263503 0.8407731347364997
26.6127731347365 13.8247731347365 18.605773134736502
1.1182268652635017 10.462226865263496 30.372773134736498
22.6092268652635 25.4247731347365 0.14022686526350014
0.05922686526350418 3.478226865263501 4.438680595790501
24.6652268652635 15.6247731347365 8.416226865263503
15.098226865263499 28.367226865263497 12.853226865263501
24.730773134736502 17.961226865263505 25.6247731347365
27.8477731347365 26.6737731347365 15.492226865263497
31.959680595790502 13.7187731347365 31.7287731347365
2.9606805957904925 27.681773134736503 6.592226865263498
2.6922268652634997 6.767226865263503 31.952226865263505
18.202226865263505 3.229226865263499 17.756773134736502
3.6897731347365 15.2943194042095 29.9577731347365
20.0612268652635 6.190226865263504 0.053680595790496
21.2297731347365 4.1157731347365 12.859226865263501
3.9602268652635004 18.8487731347365 18.772226865263498
16.1797731347365 9.6162268652635 13.896319404209503
8.811773134736502 19.312226865263504 29.792226865263494
24.291226865263503 25.5133194042095 19.215226865263496
14.663226865263503 18.410226865263503 15.658773134736501
19.952226865263505 1.8527731347365002 3.6832268652634994
6.292226865263501 14.516226865263498 25.004226865263497
7.7317731347365 27.5067731347365 14.5697731347365
7.225226865263501 30.178773134736502 15.673226865263501
26.5837731347365 3.739226865263497 31.995773134736503
7.2042268652635 13.8627731347365 15.0126805957905
27.0817731347365 13.4477731347365 28.556865673682495
30.4707731347365 28.988773134736498 30.5363194042095
4.219226865263501 12.605226865263496 26.441226865263495
15.018134326317508 9.8937731347365 6.803773134736501
21.696680595790497 28.855773134736502 25.308773134736498
17.709680595790502 10.816226865263495 6.2507731347365
20.0877731347365 24.172773134736502 0.39168059579050407
22.772680595790504 17.849773134736502 21.4057731347365
11.2837731347365 13.279226865263503 5.360680595790498
29.428680595790496 23.2957731347365 15.844773134736501
24.331226865263496 3.7236805957904977 18.6007731347365
10.744865673682511 1.2412268652634992 17.604680595790498
29.308319404209502 29.940773134736503 19.6617731347365
12.243226865263502 15.5702268652635 23.1967731347365
15.419226865263504 10.733226865263497 20.2057731347365
18.931226865263504 12.1372268652635 15.0702268652635
25.026319404209502 31.7677731347365 7.2491343263175025
19.7282268652635 27.147226865263498 4.4872268652635015
11.703226865263495 20.729226865263506 20.4147731347365
17.4877731347365 1.3292268652635002 17.6497731347365
19.2097731347365 28.855226865263496 10.526226865263503
23.7423194042095 11.139773134736501 1.5416805957904955
5.4547731347365005 7.432226865263495 22.9567731347365
23.2077731347365 27.1203194042095 2.0122268652635
15.669134326317504 14.3962268652635 12.3967731347365
23.7107731347365 1.7447731347364996 8.3907731347365
10.266680595790504 25.741226865263506 25.2523194042095
25.5467731347365 19.8507731347365 7.975226865263501
6.0072268652634975 28.744226865263506 28.486226865263497
7.7017731347365 16.0653194042095 27.0817731347365
6.2947731347365 29.4627731347365 13.179226865263495
10.794226865263504 8.9777731347365 1.870226865263497
4.1837731347365 7.011773134736501 12.087319404209499
18.1807731347365 12.511226865263502 22.9062268652635
27.974226865263496 8.8357731347365 9.235680595790498
27.247226865263507 0.2832268652635008 27.1403194042095
24.111773134736502 24.4356805957905 29.997319404209502
17.432226865263495 27.367226865263497 14.709680595790502
5.703226865263495 12.921773134736501 18.7573194042095
25.506226865263493 11.8112268652635 3.540680595790505
4.082134326317515 24.626773134736503 5.147226865263498
17.156680595790505 16.0552268652635 23.7877731347365
23.7782268652635 28.119773134736498 24.607319404209502
21.297773134736502 22.3016805957905 24.4117731347365
1.0176805957904946 31.8267731347365 16.512226865263493
0.817680595790506 18.9527731347365 1.5226805957905043
31.863773134736498 3.3047731347365 23.191226865263495
26.0393194042095 8.784226865263498 19.179226865263495
20.574680595790497 16.6763194042095 28.938226865263495
5.9717731347365 8.7917731347365 1.022226865263498
4.861226865263497 4.011226865263502 0.8846805957904991
3.2912268652635035 18.7683194042095 27.9657731347365
26.400226865263498 21.4122268652635 24.5612268652635
23.470226865263506 22.245226865263497 5.7472268652634995
19.1417731347365 14.1567731347365 0.546226865263499
0.08822686526350054 11.5503194042095 12.4707731347365
12.114226865263497 27.746680595790508 22.285773134736502
16.0612268652635 25.944226865263495 6.180226865263499
25.456319404209502 24.3607731347365 0.04522686526350128
26.275226865263498 0.6181343263175023 31.939773134736498
14.846680595790502 28.491773134736498 22.610226865263506
31.5913194042095 21.2446805957905 3.205226865263505
1.1937731347364995 11.183773134736501 30.8287731347365
14.520226865263503 5.2507731347365 18.982680595790498
23.961680595790497 17.554226865263495 25.2057731347365
28.1122268652635 26.620226865263497 10.7247731347365
15.964226865263505 11.325773134736501 20.9583194042095
21.7217731347365 28.486773134736502 12.891226865263498
29.2393194042095 4.4677731347365 21.1657731347365
21.8112268652635 16.0732268652635 26.7237731347365
17.985226865263506 5.5877731347365 30.1957731347365
23.184226865263504 3.2246805957905025 21.959319404209502
24.9417731347365 30.021226865263493 31.236773134736502
27.058319404209502 3.8592268652635013 27.626773134736503
27.625226865263507 25.238226865263506 15.453773134736501
9.569680595790501 18.453319404209502 7.162226865263499
13.115226865263502 21.7057731347365 20.5283194042095
0.9512268652635001 21.373226865263497 21.018226865263493
10.7977731347365 12.328319404209498 6.982773134736501
31.525680595790504 4.3187731347364995 10.556226865263504
6.353680595790493 19.0863194042095 0.593226865263496
17.9062268652635 25.2317731347365 1.6972268652634952
3.399773134736501 6.754226865263497 14.885226865263498
22.6523194042095 2.715226865263496 27.745773134736503
2.7882268652635034 30.5093194042095 0.296773134736501
11.193226865263505 17.184226865263504 1.719773134736501
17.050226865263504 22.111680595790503 5.191680595790501
4.5097731347365 31.1447731347365 32.0887731347365
22.752226865263502 8.2607731347365 15.317319404209503
17.3417731347365 23.8837731347365 31.4993194042095
24.1627731347365 30.977773134736502 8.141226865263498
15.487226865263501 9.106226865263501 18.6982268652635
12.857226865263499 27.3873194042095 14.565226865263504
5.975226865263501 6.492226865263497 16.445680595790506
7.782134326317504 4.544226865263504 21.562680595790496
26.9677731347365 25.5083194042095 14.2742268652635
26.5237731347365 17.671680595790505 0.9837731347365004
1.4472268652634952 15.2587731347365 9.8082268652635
5.722226865263501 25.5107731347365 3.195680595790506
23.8352268652635 6.977226865263496 4.674226865263499
7.376773134736501 11.190226865263504 21.7837731347365
18.6603194042095 13.5477731347365 16.4147731347365
4.623773134736501 23.8087731347365 31.538773134736502
26.1917731347365 30.921680595790505 29.5756805957905
27.995773134736503 26.104226865263506 6.9147731347365
11.5777731347365 16.5637731347365 27.7953194042095
25.2727731347365 3.5752268652634953 2.7726805957905043
29.4047731347365 6.044226865263504 24.730773134736502
24.1703194042095 7.339680595790497 8.074680595790497
17.816226865263495 4.681226865263504 11.958226865263498
8.720319404209501 31.1967731347365 24.1827731347365
2.255226865263502 28.857319404209502 7.5732268652635
20.3327731347365 21.956226865263496 0.7777731347365009
0.9812268652635012 27.2327731347365 20.6297731347365
3.9397731347365 29.818226865263505 25.511226865263502
19.638226865263498 1.3416805957904927 30.7282268652635
17.9557731347365 21.991226865263506 24.107226865263506
18.1937731347365 4.890680595790499 4.6357731347365
27.556226865263504 24.757226865263497 27.8357731347365
9.8047731347365 15.955226865263505 27.803773134736502
20.0333194042095 19.3442268652635 5.909773134736501
4.6487731347365 2.4592268652634957 21.6443194042095
10.857226865263499 32.016773134736496 20.080226865263505
23.959226865263496 11.785319404209499 22.7207731347365
23.055319404209502 19.1457731347365 15.909680595790505
25.627226865263502 31.550773134736502 23.2477731347365
17.458226865263505 17.7782268652635 5.729226865263499
6.088680595790493 24.6643194042095 4.928773134736501
20.173226865263494 13.313226865263495 16.7187731347365
17.8163194042095 14.9022268652635 9.811319404209502
5.760226865263498 27.2767731347365 26.5057731347365
14.921773134736501 16.0797731347365 0.37577313473649987
26.7037731347365 12.537680595790505 25.800773134736502
28.16086567368251 28.9797731347365 20.3367731347365
12.5137731347365 6.665226865263499 21.0633194042095
10.3632268652635 23.3407731347365 7.353319404209504
19.6152268652635 27.769226865263498 16.4482268652635
30.5083194042095 11.8142268652635 22.779226865263503
19.598226865263506 28.396226865263493 23.6883194042095
20.474773134736502 11.121226865263502 19.2657731347365
24.0077731347365 11.964226865263498 24.5342268652635
25.136226865263502 27.2872268652635 0.35777313473650096
25.500773134736498 1.6192268652634993 21.7107731347365
0.37768059579049407 28.774226865263493 25.845226865263506
17.5837731347365 21.9583194042095 9.8567731347365
2.2372268652635015 21.1813194042095 8.365226865263502
1.5272268652635006 12.984226865263501 11.6597731347365
8.616680595790498 5.0767731347365 21.946226865263505
24.761226865263502 21.638226865263498 6.433226865263499
31.404865673682508 11.078226865263495 21.408226865263494
28.2883194042095 30.8327731347365 27.099773134736502
30.4597731347365 11.2622268652635 1.0412268652635035
14.7592268652635 22.7012268652635 29.9203194042095
21.0917731347365 14.997680595790499 1.4862268652634967
6.161226865263501 25.532226865263503 4.591226865263501
3.6326805957905037 7.7562268652635 10.4357731347365
6.3112268652634995 9.4057731347365 29.7693194042095
26.340226865263496 10.6192268652635 24.908226865263494
29.4877731347365 21.583226865263505 27.094680595790507
0.631680595790499 3.3437731347365 29.745773134736503
23.413773134736502 18.693680595790497 28.9857731347365
10.453773134736501 13.9022268652635 19.5573194042095
2.0857731347365007 15.312226865263504 10.5522268652635
18.4067731347365 4.4807731347365 4.4647731347365
22.6293194042095 27.8202268652635 2.908226865263501
31.351680595790498 13.351226865263499 31.3187731347365
27.936773134736498 22.2192268652635 0.07022686526349986
26.224773134736502 22.3817731347365 7.5246805957905
11.3237731347365 1.6757731347365006 18.324226865263505
20.5617731347365 27.5177731347365 19.5537731347365
14.868680595790494 7.440773134736501 18.5137731347365
7.745773134736501 13.373226865263497 32.0022268652635
28.5797731347365 16.648226865263503 28.809773134736503
14.0287731347365 13.316226865263495 29.9722268652635
10.558680595790506 22.7603194042095 14.794226865263504
20.098226865263506 4.290226865263499 6.031226865263498
4.018680595790499 7.726773134736501 24.4787731347365
5.023319404209499 1.9181343263175137 20.8747731347365
17.748226865263497 28.892226865263503 4.982680595790498
31.4127731347365 24.155226865263494 25.3803194042095
3.6597731347365006 14.462226865263496 11.963773134736499
31.5942268652635 16.0827731347365 2.971226865263496
22.872226865263507 12.352226865263496 0.6927731347365
8.174773134736501 23.312226865263504 20.5737731347365
17.711226865263505 7.302226865263499 4.3902268652635
19.174680595790505 14.9817731347365 5.261773134736501
26.4182268652635 21.3237731347365 25.366226865263506
12.6017731347365 23.886226865263502 0.3587731347365004
31.995773134736503 2.7856805957904953 22.143226865263493
4.163226865263503 14.2597731347365 8.870773134736499
0.2982268652635014 1.8171343263175146 4.6806805957905055
0.08077313473649994 28.039226865263494 0.030680595790499865
1.809773134736501 9.6387731347365 19.4212268652635
30.9797731347365 8.552680595790505 0.7122268652634958
27.8717731347365 15.4167731347365 7.310226865263495
15.126226865263497 27.3627731347365 31.9223194042095
11.6277731347365 2.3697731347364996 14.927680595790505
22.605226865263496 12.9547731347365 23.6736805957905
15.202226865263505 6.030226865263501 16.510226865263498
20.818226865263505 13.4987731347365 16.693226865263505
14.071226865263505 8.9662268652635 17.489226865263497
13.668226865263499 5.391226865263498 31.870226865263497
23.9482268652635 6.5577731347365 16.7317731347365
14.267773134736501 22.6927731347365 30.2103194042095
0.789226865263501 15.848226865263499 16.369319404209502
11.1627731347365 9.4727731347365 26.3502268652635
4.296773134736501 1.7362268652634967 21.331226865263496
11.837226865263496 20.140226865263493 7.796226865263499
1.0502268652635038 21.305319404209502 9.3722268652635
18.9838656736825 12.3752268652635 18.3022268652635
20.998226865263497 27.5923194042095 23.797226865263504
31.0197731347365 26.254226865263497 11.462226865263496
11.1677731347365 22.371226865263502 32.0747731347365
14.5332268652635 31.8202268652635 2.360680595790498
22.699226865263505 12.9722268652635 1.5482268652635014
2.2846805957905048 19.6357731347365 4.0387731347365
6.4602268652635 5.794226865263504 23.424319404209502
0.45068059579050157 9.555680595790506 21.351226865263506
20.719680595790507 11.1727731347365 29.0972268652635
13.8677731347365 31.209226865263496 0.9727731347364994
3.1707731347365 29.0642268652635 19.620226865263497
23.311319404209502 8.194226865263495 1.4306805957905055
0.5582268652634994 6.905319404209504 5.239226865263497
19.663226865263503 23.832680595790507 0.4222268652635037
1.0416805957904955 13.4332268652635 5.113680595790498
12.279319404209499 21.6857731347365 14.539226865263501
30.209680595790502 11.494319404209502 12.953226865263495
4.341680595790493 9.744773134736501 10.444680595790501
31.7827731347365 12.079680595790492 9.9912268652635
20.6122268652635 25.0147731347365 6.484226865263501
21.5653194042095 22.744226865263506 6.272226865263498
27.8103194042095 15.681226865263504 18.1092268652635
2.328773134736501 2.2147731347365003 20.2967731347365
13.189319404209503 25.949226865263505 1.3492268652634962
2.1632268652635034 25.998773134736503 14.5212268652635
31.4527731347365 16.5167731347365 23.6177731347365
15.982226865263506 4.1396805957904945 21.4027731347365
26.854226865263506 28.845226865263506 25.870226865263497
6.2797731347365 5.3382268652635005 6.580226865263505
30.805319404209502 31.7842268652635 15.176226865263494
12.5807731347365 16.9857731347365 24.7357731347365
0.31022686526349474 3.9897731347365006 0.8486805957904977
1.3592268652635013 19.0327731347365 5.652226865263501
7.8896805957904945 1.6577731347365 5.421226865263499
2.5517731347365 21.9917731347365 24.02068059579051
1.5887731347365008 2.7746805957904996 7.8496805957905025
30.4457731347365 13.8782268652635 7.0216805957904995
18.38068059579051 1.402773134736501 0.5896805957904974
31.0013194042095 1.641680595790504 6.408226865263501
29.520319404209502 8.554226865263495 31.675773134736502
10.325680595790502 10.120226865263497 10.3627731347365
12.275226865263498 31.509865673682498 18.5432268652635
10.295226865263501 28.643226865263493 22.4793194042095
8.553226865263504 25.592226865263505 13.102680595790503
13.209226865263496 28.2467731347365 0.04968059579050532
12.4482268652635 15.7693194042095 1.6816805957904961
9.345226865263498 8.522319404209501 16.0637731347365
3.055134326317514 24.8167731347365 16.7933194042095
20.8863194042095 19.988226865263506 7.4137731347365
0.9492268652635047 5.0037731347365 16.945773134736502
28.8173194042095 15.090226865263496 19.2283194042095
14.189680595790506 22.2707731347365 20.6477731347365
14.9087731347365 16.5587731347365 1.2746805957904996
8.8527731347365 7.7117731347365 17.155226865263494
18.9347731347365 24.8997731347365 7.6707731347365
16.649226865263493 18.282319404209503 7.350680595790493
11.774773134736499 3.661226865263501 15.188680595790501
11.6277731347365 3.2102268652635004 15.4422268652635
24.3547731347365 12.5957731347365 32.1307731347365
24.4482268652635 30.305773134736498 15.1167731347365
22.776226865263503 19.158226865263494 0.34122686526350066
24.7483194042095 27.775226865263498 12.010226865263498
12.303680595790496 7.4977731347365 1.0592268652635042
26.520226865263503 21.1827731347365 5.401226865263503
8.0687731347365 4.361226865263497 10.0637731347365
12.4577731347365 3.532226865263503 0.9772268652634963
0.82213432631751 12.412680595790505 3.891680595790504
0.45468059579049225 27.9773194042095 25.9447731347365
3.918680595790505 6.608226865263497 24.9577731347365
22.310226865263495 19.7547731347365 29.434226865263504
3.931680595790496 11.304319404209497 4.329319404209503
7.920226865263501 12.635226865263498 9.350680595790493
24.2077731347365 5.807226865263495 9.087226865263496
30.565773134736503 11.887319404209503 2.0981343263175063
23.7536805957905 16.4867731347365 20.8933194042095
30.479226865263506 11.668226865263499 20.917226865263494
7.056773134736501 13.0517731347365 20.400226865263498
3.0752268652634953 20.849680595790502 2.4022268652635006
11.629680595790504 27.250773134736498 28.2493194042095
9.135680595790504 23.0913194042095 31.274226865263493
29.1953194042095 28.556226865263504 0.07077313473650193
29.732226865263506 2.6426805957904946 12.690226865263504
30.1007731347365 4.0527731347364995 21.547773134736502
18.9782268652635 18.3652268652635 18.0327731347365
3.9842268652635013 22.910773134736502 23.8687731347365
23.6917731347365 19.583226865263505 23.8717731347365
3.4056805957905 19.6877731347365 1.9137731347365001
12.395773134736501 23.2012268652635 21.7807731347365
22.5407731347365 29.361226865263497 2.138680595790504
25.735680595790498 5.609226865263501 11.267773134736501
31.250773134736498 0.9272268652634992 19.0282268652635
1.5712268652635046 20.7567731347365 7.9162268652635035
28.294773134736502 20.460680595790507 11.793319404209502
27.419226865263504 9.0537731347365 15.173226865263501
17.881773134736502 31.0967731347365 9.8647731347365
6.2567731347365 6.248773134736501 21.3133194042095
2.4255880568445036 9.4302268652635 6.2712268652635
31.895319404209502 11.880680595790494 0.9416805957905012
12.2917731347365 19.2067731347365 7.736680595790503
9.609226865263501 15.487319404209504 28.9997731347365
15.501226865263497 7.480680595790503 20.7207731347365
18.9482268652635 19.1907731347365 7.217226865263498
6.969773134736501 26.377226865263502 24.9157731347365
32.1377731347365 21.571226865263505 4.098134326317506
30.668865673682504 1.9127731347365007 20.2787731347365
16.111226865263497 13.623226865263497 28.4737731347365
24.0097731347365 1.8372268652634958 31.488773134736498
6.0607731347365 16.2737731347365 6.969319404209504
25.8073194042095 7.412773134736501 8.630226865263502
32.0267731347365 22.2347731347365 26.398226865263503
13.903226865263498 26.149226865263493 22.3517731347365
8.553226865263504 12.235319404209502 20.3737731347365
25.994319404209502 4.613226865263499 3.6762268652634944
26.6693194042095 5.870773134736501 9.766226865263498
14.6937731347365 2.3171343263175146 6.345319404209501
22.1922268652635 8.4687731347365 16.288226865263503
24.5397731347365 6.839226865263498 8.678226865263504
22.8457731347365 2.3052268652634993 28.453226865263495
20.839226865263505 9.9817731347365 29.0337731347365
30.107226865263506 4.814680595790506 21.366226865263506
24.2577731347365 12.4272268652635 31.718226865263496
17.02368059579051 8.130226865263502 28.1013194042095
8.036226865263501 23.001226865263497 29.641226865263498
29.7943194042095 8.113680595790498 29.2597731347365
31.477773134736502 15.298319404209504 25.6963194042095
0.48777313473649997 29.161226865263494 9.129226865263497
31.167226865263494 7.618226865263502 10.794226865263504
29.974773134736502 13.342226865263498 9.519226865263498
9.2837731347365 30.5977731347365 24.4268656736825
13.782226865263503 2.1883194042094978 27.808773134736498
28.800226865263504 25.3583194042095 27.2807731347365
17.6547731347365 28.203319404209502 4.9657731347365
1.259680595790499 11.252226865263502 26.15768059579051
17.9733194042095 3.940773134736501 21.2657731347365
3.9462268652635046 2.343319404209499 12.385680595790504
16.9827731347365 27.009226865263493 21.4297731347365
17.575319404209502 6.8917731347365 11.435680595790501
31.1357731347365 6.249226865263502 32.105773134736495
1.6582268652635008 14.7497731347365 23.2077731347365
17.4293194042095 3.1326805957905037 10.002226865263502
13.653226865263498 11.736226865263497 31.1683194042095
27.269680595790504 7.782680595790495 18.7517731347365
29.5107731347365 4.194773134736501 11.481226865263501
13.135226865263498 30.7297731347365 10.292319404209504
13.1277731347365 7.575226865263495 25.5517731347365
18.4177731347365 22.7783194042095 23.202226865263505
21.2372268652635 10.479226865263499 28.634226865263493
21.2867731347365 19.7177731347365 13.578226865263495
1.513680595790504 30.5792268652635 26.8887731347365
10.979226865263499 23.456319404209502 14.975680595790493
13.0167731347365 8.755226865263502 17.8637731347365
15.2377731347365 4.0656805957904965 21.2487731347365
7.4337731347365 8.1067731347365 16.863226865263506
3.0346805957905048 9.017680595790495 26.6922268652635
1.485226865263499 1.397226865263498 31.9113194042095
2.657319404209499 21.270319404209502 2.7063194042094985
12.1402268652635 6.7767731347365 20.5673194042095
18.2297731347365 6.263226865263498 11.8497731347365
7.055319404209502 5.1222268652634995 20.7817731347365
18.8457731347365 13.760680595790504 4.788226865263503
25.6187731347365 20.488226865263506 25.276226865263503
14.764319404209498 15.453773134736501 10.9097731347365
14.0627731347365 12.9787731347365 30.7867731347365
18.9632268652635 22.8287731347365 19.014226865263502
0.2812268652634984 19.5927731347365 3.0547731347365
1.1266805957905035 13.245226865263497 31.7163194042095
27.5897731347365 9.8967731347365 3.9097731347365006
27.084680595790502 29.1687731347365 22.1113194042095
0.627226865263502 6.0822268652635 11.279319404209499
0.008773134736500765 27.595226865263506 31.985226865263506
13.272226865263498 30.433773134736498 9.193226865263505
20.0067731347365 8.1522268652635 11.1402268652635
15.7682268652635 31.887226865263493 3.739680595790503
3.0666805957905012 28.7937731347365 7.1387731347365
11.417226865263501 12.8992268652635 6.995773134736501
12.4237731347365 20.9387731347365 8.9482268652635
19.840680595790502 28.4517731347365 24.218319404209502
0.7717731347365007 25.9387731347365 14.0367731347365
2.2177731347365004 25.282319404209503 24.427773134736498
29.6347731347365 12.755226865263502 9.418226865263499
11.1402268652635 11.243226865263502 9.108680595790503
32.0037731347365 19.03268059579051 5.520226865263503
30.882226865263497 18.8737731347365 10.502319404209498
27.247773134736498 6.944226865263495 23.0227731347365
26.5713194042095 0.5507731347365006 20.4083194042095
24.7072268652635 23.4782268652635 20.2377731347365
6.038226865263503 0.14131940420950428 20.1742268652635
8.6802268652635 1.1692268652635036 5.217226865263498
5.266226865263498 27.328226865263495 6.357773134736501
4.289226865263501 13.560226865263495 17.4463194042095
28.489773134736502 27.973226865263506 2.8847731347365
12.131680595790499 2.767773134736501 31.566226865263495
24.988226865263506 31.9597731347365 30.122226865263507
1.7997731347365011 1.8357731347365007 9.6372268652635
1.8982268652635028 23.288226865263503 25.4302268652635
3.5526805957905054 31.661226865263494 13.2832268652635
6.6127731347365 14.276226865263503 27.532226865263503
15.1007731347365 15.168226865263499 12.4737731347365
4.928680595790496 28.375773134736498 7.246680595790494
10.623226865263497 23.025226865263498 27.8173194042095
4.420226865263501 1.1437731347365006 10.403226865263498
1.3372268652634958 19.5972268652635 14.319319404209498
15.805319404209502 4.735226865263499 11.292226865263501
11.4227731347365 12.872680595790499 7.739680595790503
30.1437731347365 16.2867731347365 28.8853194042095
19.170226865263494 15.096680595790502 25.275226865263498
3.1402268652635 23.7962268652635 26.065773134736503
10.0097731347365 28.1682268652635 18.4147731347365
5.722773134736499 6.261773134736501 7.431226865263504
7.426226865263494 24.1297731347365 20.1677731347365
18.211226865263505 26.619226865263506 22.253773134736498
17.3262268652635 10.356226865263501 5.140134326317508
13.1987731347365 25.934226865263504 20.6137731347365
22.582680595790507 6.208680595790497 4.1857731347365
0.06368059579050112 2.1986805957905062 3.8682268652635017
12.1927731347365 0.9782268652635011 9.483226865263497
10.624226865263502 1.921226865263499 18.732226865263506
20.2437731347365 0.8026805957905054 15.0707731347365
1.3956805957904947 21.5576805957905 8.248680595790503
12.5848656736825 14.4497731347365 5.868134326317502
14.0336805957905 8.739226865263497 18.52368059579051
16.412680595790505 6.814680595790506 28.9497731347365
5.009680595790499 25.227226865263496 3.3656805957904936
30.2957731347365 25.9662268652635 1.328773134736501
22.4392268652635 7.053226865263504 15.252226865263502
26.3387731347365 1.9222268652635037 1.7016805957904921
17.7927731347365 22.1737731347365 17.9977731347365
22.0053194042095 18.337680595790502 27.103680595790507
11.975226865263501 7.831773134736501 2.799226865263499
17.941226865263495 22.313226865263495 1.2667731347364999
28.0517731347365 3.1382268652634977 16.416226865263503
18.898319404209502 19.6982268652635 17.3683194042095
21.0792268652635 19.2467731347365 4.288226865263503
24.4446805957905 17.683319404209502 1.0596805957904962
4.2017731347365 16.2667731347365 10.325319404209498
15.975319404209504 6.5557731347365 28.061319404209502
4.450773134736501 29.1517731347365 29.635680595790504
29.2167731347365 10.5987731347365 0.36222686526350145
26.175773134736502 29.253773134736498 4.8877731347365
21.4722268652635 6.8977731347365 3.3046805957905008
28.5467731347365 3.023680595790495 12.9657731347365
7.754773134736499 4.726226865263499 20.470226865263506
19.5207731347365 4.883226865263502 9.715226865263496
18.214226865263505 25.5757731347365 12.8217731347365
9.852226865263496 28.6317731347365 4.3202268652635
19.1903194042095 22.483773134736502 26.148226865263503
6.912680595790505 6.249226865263502 15.115680595790494
2.962680595790502 20.8203194042095 10.2177731347365
30.6952268652635 11.547226865263504 20.2753194042095
15.0027731347365 22.8477731347365 28.4297731347365
30.644226865263498 26.046319404209502 12.6567731347365
16.7477731347365 31.5453194042095 32.0943194042095
8.872773134736502 10.1027731347365 27.252226865263502
18.9033194042095 28.8183194042095 18.3907731347365
5.453773134736501 8.4677731347365 1.0581343263175143
0.20868059579049714 7.366226865263499 12.455226865263505
17.900226865263498 24.1247731347365 1.6082268652634966
19.0927731347365 24.883226865263502 8.355680595790503
12.977226865263496 24.049680595790505 23.1137731347365
8.1766805957905 30.280226865263494 24.7137731347365
30.069226865263495 1.7752268652634982 7.125680595790499
1.6266805957905035 20.6557731347365 8.742226865263497
16.7187731347365 4.840226865263496 3.3126805957904963
1.7246805957905025 24.8813194042095 30.7757731347365
23.5197731347365 9.133226865263502 14.116319404209502
25.7068656736825 15.1827731347365 31.1487731347365
31.0642268652635 20.4932268652635 16.4597731347365
20.3327731347365 13.1217731347365 9.235226865263499
7.9037731347365 21.764319404209502 30.639319404209502
0.9646805957904974 21.233226865263497 3.5612268652634995
7.2757731347365 10.715226865263496 21.883226865263502
25.7577731347365 29.930319404209502 23.0737731347365
28.5237731347365 14.563226865263495 19.1937731347365
0.9352268652634947 22.3747731347365 20.2217731347365
13.4067731347365 22.9133194042095 9.1252268652635
9.5197731347365 9.9326805957905 3.833226865263498
18.512226865263493 20.6923194042095 5.578226865263495
9.818680595790497 20.0977731347365 4.219226865263501
17.0312268652635 5.8397731347365 11.2107731347365
19.0427731347365 21.0767731347365 24.242226865263497
20.3777731347365 16.3837731347365 27.837319404209502
30.6557731347365 9.986226865263497 30.423226865263494
24.425773134736502 8.9437731347365 4.063680595790501
12.074226865263505 10.4117731347365 31.924319404209502
19.7677731347365 11.615226865263502 10.5117731347365
18.982680595790498 11.046226865263499 18.3022268652635
16.858680595790503 23.2962268652635 10.097319404209504
6.0157731347365 4.4292268652634945 28.768226865263493
26.658226865263494 8.872773134736502 23.5047731347365
6.3896805957904945 23.733773134736502 29.9607731347365
5.369226865263499 20.4277731347365 17.434226865263504
17.744319404209502 11.136226865263502 5.281226865263498
10.858226865263497 12.351680595790498 9.0396805957905
31.588680595790507 8.764773134736501 11.0852268652635
8.078226865263495 14.895226865263503 29.0413194042095
7.326319404209503 8.770680595790495 21.581226865263496
7.4392268652635 24.6712268652635 20.5363194042095
18.458680595790497 2.8037731347365007 32.0367731347365
26.765226865263493 9.609226865263501 23.8682268652635
31.3813194042095 21.611773134736502 8.361226865263497
31.1062268652635 27.593226865263496 22.5533194042095
20.336226865263505 19.2203194042095 7.4422268652635
28.495773134736503 24.794773134736502 27.8197731347365
13.3932268652635 1.6432268652635003 26.0612268652635
21.798226865263494 2.0441343263175042 10.941226865263495
21.875773134736498 22.6887731347365 24.8907731347365
24.1717731347365 7.623226865263497 15.585865673682505
11.855226865263496 7.591226865263501 17.8547731347365
13.796226865263499 22.5327731347365 28.1527731347365
24.250319404209502 24.461226865263505 7.294226865263504
31.3193194042095 4.843226865263496 10.739680595790503
18.9557731347365 19.392319404209502 30.5133194042095
1.3692268652634993 3.9162268652635035 16.345226865263506
23.828226865263495 9.0227731347365 6.010680595790504
10.122680595790499 9.936680595790506 20.3747731347365
5.208226865263498 29.1182268652635 4.715134326317511
18.3093194042095 14.766680595790504 26.4827731347365
12.9967731347365 15.985319404209502 15.2177731347365
11.129226865263497 14.8517731347365 18.50568059579051
29.135226865263498 8.610773134736501 9.412226865263499
15.6497731347365 17.916773134736502 31.3017731347365
4.261226865263502 15.4837731347365 12.9116805957905
29.058773134736498 27.052773134736498 0.8311343263175104
10.745773134736499 8.3472268652635 28.248773134736503
22.0857731347365 26.988773134736498 2.9572268652635003
27.414226865263494 1.5356805957904953 12.4517731347365
13.150319404209501 4.6122268652635015 10.7727731347365
19.3847731347365 4.470680595790498 5.1496805957905
10.0822268652635 18.070773134736502 28.5637731347365
20.0307731347365 2.1567731347365005 16.999226865263502
10.907226865263503 23.250773134736498 10.026226865263503
21.78868059579051 13.5707731347365 0.37777313473650054
28.4637731347365 7.902226865263501 6.313226865263495
0.5096805957904991 25.26768059579051 12.629226865263497
23.007226865263497 7.613226865263499 5.6252268652635
20.3987731347365 23.968680595790502 0.9882268652634991
27.0912268652635 2.0122268652635 13.8687731347365
18.155226865263494 19.5282268652635 15.835319404209503
21.4453194042095 27.9413194042095 14.3817731347365
13.3217731347365 10.879680595790504 31.5093194042095
22.3267731347365 24.9787731347365 24.898319404209502
9.7877731347365 23.2723194042095 17.577680595790497
24.0733194042095 7.411226865263501 4.559773134736501
12.9512268652635 30.738319404209502 29.2627731347365
6.580226865263505 8.657226865263503 14.0387731347365
12.732680595790498 2.5132268652634977 30.5277731347365
11.2363194042095 4.5812268652634955 27.4577731347365
12.1057731347365 13.6237731347365 16.018226865263493
31.870226865263497 16.060226865263495 23.7007731347365
9.796226865263499 19.9332268652635 14.1547731347365
19.556226865263504 2.8212268652635046 16.900226865263498
26.2243194042095 20.505226865263502 23.1357731347365
7.779680595790495 4.0837731347365 22.5237731347365
16.6136805957905 15.9527731347365 2.096226865263496
3.700773134736501 19.851226865263506 0.3726805957904986
24.561319404209502 31.777226865263493 16.5777731347365
31.379226865263497 16.095226865263506 2.0057731347365007
25.4123194042095 16.567773134736502 9.3202268652635
26.780226865263494 22.5857731347365 21.530226865263494
31.881226865263493 4.703226865263495 1.1402268652635001
31.2282268652635 2.9036805957905045 20.140226865263493
13.9377731347365 6.326680595790492 25.1457731347365
4.453226865263495 1.0172268652635026 18.465680595790502
13.2377731347365 25.983773134736502 6.5717731347365
21.2387731347365 26.4427731347365 25.8203194042095
1.7097731347364995 29.2097731347365 25.9182268652635
5.428773134736501 13.7667731347365 9.781680595790505
32.1557731347365 8.9572268652635 9.698680595790506
29.651226865263503 20.227226865263496 16.2902268652635
23.5617731347365 30.571680595790497 15.4137731347365
26.052773134736498 31.4187731347365 26.379134326317512
2.0677731347365 24.3277731347365 30.819226865263495
22.2103194042095 24.932226865263495 5.501226865263497
22.894226865263498 2.7002268652634953 21.074680595790497
8.5007731347365 17.349773134736502 11.565226865263504
10.2247731347365 23.1847731347365 30.8407731347365
14.6337731347365 21.002865673682507 20.913226865263503
30.732226865263506 21.5756805957905 26.3817731347365
31.0467731347365 5.316226865263495 10.288226865263503
24.1627731347365 12.5792268652635 2.3282268652634954
27.385226865263498 15.794226865263504 14.331226865263496
2.1417731347365 23.3142268652635 24.6293194042095
22.8763194042095 0.24177313473649953 16.328226865263495
10.4452268652635 29.6467731347365 9.7397731347365
31.501226865263497 23.8883194042095 18.6497731347365
11.4427731347365 23.539226865263494 9.211226865263498
9.714226865263498 8.4912268652635 25.0947731347365
2.9862268652634967 7.1537731347365 9.847319404209504
1.3692268652634993 17.881773134736502 15.043226865263499
30.9447731347365 13.2977731347365 9.4147731347365
20.648226865263503 9.549226865263499 11.674773134736501
10.1097731347365 23.611226865263497 14.5803194042095
1.1982268652635 16.8203194042095 22.087680595790502
14.443226865263505 6.244226865263499 18.105226865263496
12.577226865263505 5.799773134736501 0.8102268652634947
18.547773134736502 29.6377731347365 6.736226865263497
29.0517731347365 12.819226865263495 7.283773134736501
31.7603194042095 19.648226865263503 22.2437731347365
4.756680595790499 5.4406805957904965 30.1927731347365
14.4146805957905 1.346226865263496 6.3822268652634975
6.9236805957905005 20.9217731347365 17.3307731347365
10.235680595790498 11.4983194042095 10.767773134736501
4.9422268652635 17.7107731347365 2.5282268652634983
21.3877731347365 21.7047731347365 6.6647731347365
12.923226865263501 18.657226865263503 22.3082268652635
18.989226865263497 11.8477731347365 19.2853194042095
28.2287731347365 26.5543194042095 21.843226865263496
29.281680595790505 7.3147731347365 23.541773134736502
19.1807731347365 12.257226865263497 5.8872268652635
23.920226865263494 27.5882268652635 30.126773134736503
20.823680595790506 19.339680595790497 27.6793194042095
12.226226865263499 1.5807731347365 21.089226865263505
26.962226865263496 29.423226865263494 24.303773134736502
23.1923194042095 23.523226865263503 5.968226865263496
9.263226865263498 9.3047731347365 11.6417731347365
11.112226865263501 22.1092268652635 24.5427731347365
31.4613194042095 15.776319404209499 16.5373194042095
4.728134326317516 17.354226865263506 20.0967731347365
29.8397731347365 26.0067731347365 20.5547731347365
21.500773134736498 15.219134326317516 15.3717731347365
2.5977731347364994 0.8767731347365011 3.5062268652635
1.1282268652634997 2.2727731347365 7.8782268652635
22.924319404209502 11.607773134736501 16.839680595790497
11.1577731347365 25.061773134736498 23.0157731347365
18.002226865263502 14.6897731347365 25.575319404209502
4.0197731347365 18.817773134736502 11.167226865263501
0.3233194042095029 27.291226865263503 0.17122686526349895
21.917226865263494 3.431680595790496 27.1767731347365
19.271226865263493 12.2807731347365 16.194319404209498
13.0737731347365 9.0087731347365 19.480773134736502
21.4607731347365 10.6577731347365 29.812680595790496
8.4082268652635 8.7557731347365 28.2127731347365
3.766680595790504 14.592226865263498 10.364226865263497
31.5187731347365 9.460680595790492 1.100226865263501
9.227680595790503 23.649226865263493 14.1406805957905
2.7147731347365003 10.447680595790501 24.9272268652635
15.172226865263504 4.047226865263504 11.2297731347365
13.337226865263496 25.9976805957905 21.3532268652635
20.1597731347365 9.5697731347365 29.667226865263494
14.8227731347365 10.568226865263505 5.9687731347365
14.1402268652635 15.9107731347365 15.964226865263505
31.1982268652635 26.1427731347365 2.664226865263501
0.8677731347365008 7.225226865263501 31.648226865263503
9.0702268652635 20.7197731347365 1.5457731347364998
22.7767731347365 18.931226865263504 6.6646805957905
28.4097731347365 26.159680595790505 19.601226865263506
25.7113194042095 15.479680595790498 30.3717731347365
18.9927731347365 21.3412268652635 25.683773134736498
29.994319404209502 20.5057731347365 20.2457731347365
12.728226865263501 9.048226865263501 16.3523194042095
26.572226865263495 27.4637731347365 10.0657731347365
19.404319404209502 29.5703194042095 25.5027731347365
19.5607731347365 1.7612268652635024 5.7062268652634955
22.0087731347365 9.165226865263499 2.7332268652634966
11.3157731347365 24.637226865263493 24.5117731347365
3.4736805957904977 18.875226865263507 1.7062268652634955
29.1323194042095 30.0713194042095 11.5957731347365
10.2977731347365 20.407226865263503 4.713134326317515
0.3262268652635001 4.3902268652635 16.40468059579051
25.363319404209502 4.433680595790506 1.891680595790504
9.6267731347365 22.694226865263495 0.8946805957905042
12.647680595790504 5.678226865263504 3.2227731347364994
6.200773134736501 28.0987731347365 12.7857731347365
1.4192268652635036 9.641226865263498 21.1337731347365
24.238226865263506 4.529680595790495 22.0957731347365
24.0097731347365 1.3687731347365002 13.616319404209502
24.000865673682497 18.51168059579051 27.8823194042095
31.4207731347365 20.2962268652635 5.8042268652634945
6.6967731347365 3.097226865263501 1.151680595790495
12.094319404209504 16.5837731347365 4.8056805957905055
25.0777731347365 3.3466805957905024 20.7012268652635
25.3743194042095 2.3893194042094983 4.9632268652635005
25.7192268652635 18.7812268652635 3.189680595790506
26.2997731347365 25.512226865263493 30.994226865263506
8.7317731347365 9.410226865263503 20.8786805957905
18.2617731347365 25.928773134736502 1.0872268652634958
23.038226865263503 22.0603194042095 13.729680595790498
2.218226865263496 7.8407731347365 31.3987731347365
21.892226865263503 12.221226865263496 9.398773134736501
1.312773134736501 29.3243194042095 20.1677731347365
10.9987731347365 0.7902268652634987 21.945680595790506
12.3647731347365 27.2312268652635 4.718319404209499
11.7197731347365 12.8662268652635 6.1287731347365
17.0516805957905 26.149226865263493 0.36522686526350157
23.307226865263495 9.3647731347365 0.6887731347365005
23.816226865263495 25.791773134736502 18.798226865263494
5.970226865263498 28.2087731347365 14.2926805957905
8.543226865263499 2.103134326317516 23.238319404209502
26.3943194042095 31.257226865263497 10.4157731347365
24.806680595790496 18.7782268652635 26.5582268652635
20.8057731347365 29.357226865263506 2.049773134736501
4.6392268652635025 6.596226865263496 27.745226865263497
23.4583194042095 20.7047731347365 5.569680595790501
7.165773134736501 9.607226865263499 30.527226865263493
20.3387731347365 13.7562268652635 16.1397731347365
20.6682268652635 9.719680595790493 30.3597731347365
6.6487731347365 16.163226865263503 8.127319404209498
6.824226865263505 24.575319404209502 3.6387731347364998
29.8917731347365 6.898680595790495 5.5812268652634955
18.5137731347365 17.2117731347365 31.4923194042095
1.6862268652634995 9.154773134736502 19.1973194042095
26.8927731347365 16.6787731347365 13.433319404209502
16.4607731347365 17.991319404209502 17.5717731347365
21.4037731347365 19.299865673682504 28.472680595790507
2.8182268652635045 27.3207731347365 8.428226865263504
8.1307731347365 14.0533194042095 14.224226865263496
13.3112268652635 21.673226865263494 30.2897731347365
9.903319404209501 20.3607731347365 1.2642268652635025
14.0942268652635 10.770773134736501 20.2177731347365
12.520773134736501 7.2287731347365 0.4607731347365007
27.2923194042095 2.6806805957905055 2.8377731347364996
29.745773134736503 4.854680595790498 29.2252268652635
17.1877731347365 29.1987731347365 17.3963194042095
23.9872268652635 24.0156805957905 4.8757731347365
24.6887731347365 9.7772268652635 4.400226865263498
17.756773134736502 21.0487731347365 17.927319404209502
11.324226865263505 8.128680595790499 26.974226865263496
25.4647731347365 22.1182268652635 28.022226865263498
4.863680595790498 18.422773134736502 18.697226865263495
11.0307731347365 23.962226865263496 17.882226865263497
9.937226865263504 17.0017731347365 21.4517731347365
3.8857731347364997 21.339226865263505 17.1712268652635
6.581773134736501 32.092319404209505 5.321680595790497
4.854226865263499 28.3957731347365 25.730773134736502
23.859680595790508 10.967226865263498 5.919226865263504
24.5897731347365 8.3547731347365 15.873226865263497
9.349680595790502 17.6892268652635 29.324226865263505
15.029319404209499 22.6123194042095 29.7377731347365
0.09431940420950724 9.665226865263499 12.467226865263498
28.4007731347365 6.450226865263495 6.100680595790493
7.3667731347364995 3.3952268652635027 30.6567731347365
1.3202268652634999 8.882226865263497 32.054226865263495
31.2647731347365 19.9122268652635 7.232226865263499
13.6387731347365 2.0346805957905048 27.0127731347365
12.0156805957905 16.735226865263506 28.962226865263496
23.1347731347365 19.0393194042095 25.193680595790497
9.748226865263497 21.2027731347365 28.7476805957905
5.974319404209499 10.248680595790503 13.934226865263504
26.1923194042095 7.266680595790504 15.5032268652635
9.333226865263498 22.517319404209502 16.8653194042095
24.4667731347365 13.185319404209498 1.6552268652635007
19.616226865263506 21.8467731347365 25.8957731347365
7.873680595790503 6.1052268652634964 22.389319404209502
17.7527731347365 26.922226865263504 22.384226865263493
31.5703194042095 29.322226865263495 9.5047731347365
15.743226865263502 26.4603194042095 0.4497731347364997
11.7267731347365 26.300773134736502 17.00268059579051
31.983773134736502 11.102226865263496 29.9212268652635
26.0747731347365 6.8397731347365 19.2812268652635
26.6687731347365 17.8322268652635 3.012319404209503
17.404226865263503 17.3147731347365 31.135226865263498
2.1852268652634947 19.123226865263497 13.1462268652635
16.9017731347365 5.1282268652635 21.5023194042095
26.065226865263504 13.120226865263497 14.246680595790494
1.5756805957905016 26.1917731347365 14.6766805957905
0.5926805957904975 4.934226865263504 15.958319404209501
11.421226865263499 13.7507731347365 7.1027731347365
25.6673194042095 8.425226865263504 5.910226865263503
29.1547731347365 25.3817731347365 3.400226865263498
15.3917731347365 10.4877731347365 11.482680595790498
23.0337731347365 8.998680595790503 4.261134326317503
7.2532268652635 22.923226865263494 21.113319404209502
15.7132268652635 8.920226865263501 14.4512268652635
31.2357731347365 29.314319404209503 28.306865673682495
1.0231343263175035 13.5607731347365 23.772226865263498
8.917226865263501 9.5302268652635 26.9387731347365
5.172226865263504 6.1037731347365 15.226226865263499
24.711226865263505 19.150226865263498 25.0942268652635
1.904226865263503 3.9657731347364997 24.3763194042095
11.824226865263505 31.0773194042095 11.1917731347365
6.9362268652634995 24.0587731347365 30.182226865263495
2.222319404209504 12.1862268652635 17.1727731347365
31.4983194042095 11.924226865263499 13.055773134736501
31.5407731347365 3.023226865263503 21.244226865263506
3.3282268652634954 1.2917731347365002 3.8887731347364998
19.355226865263496 4.859226865263501 30.3743194042095
21.1877731347365 3.4132268652635034 28.929226865263495
19.7097731347365 11.7497731347365 19.2527731347365
13.8817731347365 32.1712268652635 17.3666805957905
11.4817731347365 8.45013432631751 26.9328656736825
11.505319404209498 30.5127731347365 2.019226865263498
2.0952268652634984 12.2607731347365 6.094226865263501
30.0177731347365 19.2867731347365 18.6712268652635
25.023226865263503 27.911226865263494 7.207319404209503
28.461226865263505 21.166226865263503 12.148773134736501
0.8227731347365008 26.5277731347365 29.0777731347365
26.9907731347365 20.4152268652635 23.3907731347365
31.923226865263494 9.866773134736501 29.857226865263506
31.423226865263494 2.887680595790499 5.438226865263495
0.1802268652634993 20.4247731347365 8.058680595790506
3.0182268652635003 16.4387731347365 2.961226865263498
3.454319404209503 28.1712268652635 21.672773134736502
7.412226865263499 27.9967731347365 3.884680595790499
23.166773134736502 21.2757731347365 14.1477731347365
12.6436805957905 4.091773134736501 3.0261343263175036
25.6537731347365 0.3276805957904969 7.6806805957905055
26.4733194042095 16.91368059579051 18.9077731347365
14.3202268652635 15.968226865263496 1.7756805957905044
31.1537731347365 11.020226865263503 8.459226865263496
8.850680595790493 13.3787731347365 18.5827731347365
22.2997731347365 28.003773134736498 12.791226865263503
11.8197731347365 19.214226865263505 2.700773134736501
15.7567731347365 21.2962268652635 28.1742268652635
3.5652268652635044 17.2847731347365 29.3393194042095
3.8582268652634966 16.2513194042095 8.8823194042095
8.994773134736501 9.1667731347365 4.690226865263504
28.3352268652635 32.098226865263506 11.954680595790492
14.3877731347365 28.5943194042095 27.628773134736498
15.5707731347365 28.934226865263504 4.636134326317503
19.9613194042095 28.437773134736503 27.6092268652635
10.3547731347365 16.842226865263505 20.7162268652635
2.350226865263501 19.928680595790496 9.770680595790495
24.4267731347365 19.781680595790505 23.607226865263506
19.7967731347365 28.9847731347365 25.1043194042095
1.4062268652634984 19.0327731347365 6.867773134736501
14.1947731347365 9.2627731347365 8.217226865263498
7.9452268652635 5.610773134736501 6.990680595790494
6.8057731347365 8.2162268652635 16.288226865263503
9.106226865263501 15.794680595790496 30.3937731347365
17.7827731347365 2.8167731347365006 31.4697731347365
15.086319404209501 27.095226865263506 0.5442268652635036
3.0792268652635 0.3806805957904942 2.5686805957904966
23.462226865263496 18.8677731347365 8.4087731347365
16.479226865263506 6.914226865263501 9.770226865263503
