30.121226865263502 24.1587731347365 5.1662268652635035
8.753680595790499 6.296226865263499 7.6282268652635
13.2497731347365 24.3292268652635 15.075773134736501
26.1903194042095 6.251773134736501 16.285226865263503
13.370226865263497 22.794226865263504 28.575226865263495
8.7716805957905 16.610226865263506 0.7475880568445064
30.870773134736503 21.613226865263506 11.272226865263498
23.547773134736502 6.266680595790504 24.6243194042095
26.4687731347365 3.164226865263501 0.03768059579050487
28.686773134736498 18.1063194042095 0.8322268652635003
27.2463194042095 17.874680595790508 4.754226865263497
27.0013194042095 22.9146805957905 31.5633194042095
29.879226865263497 12.2817731347365 15.380680595790494
20.7217731347365 12.569226865263495 1.127680595790494
27.2047731347365 2.5447731347365004 31.9877731347365
3.7373194042095044 20.522680595790504 15.793319404209502
21.230226865263496 11.351226865263499 20.4923194042095
5.6067731347365 20.7962268652635 1.3852268652634976
25.065773134736503 18.0282268652635 22.672773134736502
11.440226865263504 10.087773134736501 6.3992268652635005
9.3202268652635 11.825226865263495 1.7402268652635016
24.510226865263498 30.4587731347365 29.998226865263497
5.3812268652635 1.0722268652634952 6.8872268652635
20.8807731347365 24.5757731347365 9.3527731347365
22.050680595790496 10.442319404209503 20.6887731347365
28.2023194042095 17.3427731347365 11.727226865263496
20.9277731347365 27.3297731347365 31.3423194042095
5.046226865263499 0.6567731347365005 29.126226865263497
28.837226865263496 11.138226865263498 26.117773134736503
21.88968059579051 28.598226865263506 12.352226865263496
12.2837731347365 8.9677731347365 11.477226865263496
11.672226865263504 26.239773134736502 29.6883194042095
5.3527731347365 17.164226865263494 30.4847731347365
0.8767731347365011 14.184226865263504 21.601226865263506
26.7218656736825 0.6515880568445027 8.1367731347365
25.305773134736498 13.0672268652635 0.2942268652635036
5.3217731347365 26.938226865263495 10.423226865263501
32.0577731347365 6.780226865263501 21.684226865263504
31.0623194042095 18.4722268652635 18.9947731347365
0.5587731347364997 25.3287731347365 14.514226865263502
5.224226865263496 31.046680595790505 21.312226865263504
26.852773134736502 0.4432268652635045 18.3067731347365
26.1357731347365 26.4697731347365 27.0377731347365
5.6547731347365 23.010226865263498 4.982680595790498
28.9817731347365 9.9877731347365 26.4667731347365
1.019226865263498 13.9977731347365 10.226680595790498
18.6527731347365 29.7607731347365 2.7887731347365
21.361773134736502 21.189680595790506 28.2177731347365
30.9933194042095 23.544226865263504 5.248773134736501
5.219680595790493 23.050680595790496 21.407226865263503
23.652226865263493 29.537680595790505 18.53268059579051
28.7167731347365 29.242773134736503 23.4946805957905
25.4752268652635 22.517226865263503 27.5187731347365
1.3222268652634952 19.48913432631751 31.689773134736498
26.305319404209502 10.681680595790496 16.9607731347365
4.008226865263502 22.719680595790507 6.846226865263496
7.821680595790497 11.330226865263505 16.2077731347365
30.751773134736503 20.8347731347365 11.542226865263501
2.0152268652635 24.9573194042095 28.670226865263494
28.128773134736498 17.3877731347365 9.0777731347365
16.4417731347365 2.0637731347365005 22.1317731347365
19.796319404209502 15.465226865263496 17.230226865263496
26.019226865263498 30.0937731347365 11.540226865263499
15.9572268652635 26.2157731347365 5.527226865263501
2.9672268652634983 3.4912268652634992 30.438226865263495
29.8562268652635 29.8597731347365 8.392680595790495
2.3312268652634955 5.025226865263498 7.499226865263502
31.5337731347365 6.3482268652634986 1.3827731347364995
11.1507731347365 3.3352268652635004 15.1487731347365
17.0762268652635 12.9047731347365 23.5253194042095
20.373226865263497 12.7412268652635 21.1706805957905
12.2712268652635 24.5133194042095 15.0972268652635
26.9877731347365 11.248680595790503 9.243226865263502
1.6436805957904994 11.370773134736499 30.0473194042095
3.1736805957905005 11.615226865263502 5.790226865263499
21.652226865263493 3.4222268652635037 2.5982268652634986
14.5357731347365 5.3902268652635 21.1353194042095
5.777773134736501 23.0077731347365 16.067773134736502
0.5626805957904963 1.6232268652634971 25.605226865263496
11.795226865263501 14.331226865263496 5.5397731347365
23.9433194042095 15.277773134736501 10.745773134736499
16.7157731347365 15.332319404209503 3.222680595790493
1.2002268652634953 3.7652268652635 19.9182268652635
9.2167731347365 12.541226865263503 2.0896805957904974
31.6397731347365 13.434773134736501 21.3652268652635
1.7622268652635 30.4877731347365 2.9117731347364995
11.861226865263497 15.967226865263505 8.249226865263502
27.459226865263496 23.336226865263505 23.0207731347365
12.0157731347365 17.1652268652635 22.5927731347365
14.5152268652635 2.6777731347364995 4.091226865263501
12.5667731347365 21.2342268652635 10.0687731347365
15.739226865263497 26.1187731347365 32.1742268652635
2.6056805957905027 5.815226865263504 8.169226865263504
4.103680595790493 31.857226865263506 27.8487731347365
2.4322268652634946 11.924773134736501 5.4036805957905045
1.7397731347365006 9.7167731347365 31.6927731347365
28.9793194042095 24.306773134736503 31.389226865263502
30.285773134736502 20.3397731347365 32.074319404209504
17.1097731347365 24.3202268652635 9.5077731347365
16.810226865263495 2.4437731347364995 14.420226865263501
16.9212268652635 18.7372268652635 31.8043194042095
14.8137731347365 3.5582268652634994 2.6852268652634947
20.3247731347365 20.246226865263502 1.819226865263495
23.3457731347365 26.184773134736503 17.6497731347365
15.742226865263497 10.715773134736502 13.072680595790501
23.9327731347365 17.3652268652635 18.6407731347365
12.181226865263504 23.1427731347365 28.0787731347365
10.660226865263503 6.3232268652635 13.475226865263501
4.175226865263504 27.7377731347365 26.5947731347365
13.2656805957905 14.069226865263495 3.1872268652635043
15.7117731347365 30.105773134736502 6.692319404209503
7.406226865263498 20.3077731347365 11.861226865263497
11.872773134736502 24.312773134736503 3.918680595790505
12.1667731347365 20.467226865263505 8.354226865263499
4.682226865263495 11.742680595790503 24.8957731347365
6.910226865263503 23.2883194042095 17.612680595790508
5.102226865263496 24.196226865263505 13.549773134736501
12.1647731347365 14.596226865263496 17.152226865263493
16.3093194042095 30.3583194042095 9.171773134736501
27.4507731347365 5.697773134736501 5.154226865263503
8.971680595790502 22.2312268652635 21.0762268652635
27.9627731347365 3.873773134736501 22.7313194042095
27.1447731347365 21.084319404209502 9.925680595790496
18.556226865263504 12.2617731347365 22.647226865263498
1.2246805957905025 9.3437731347365 28.0797731347365
4.0257731347365 12.3782268652635 25.0312268652635
15.302680595790505 18.229226865263506 19.973226865263506
15.098680595790498 11.900680595790504 13.717226865263498
2.722319404209504 4.5137731347365 30.3532268652635
5.5882268652635005 22.7007731347365 1.1872268652635043
26.7932268652635 31.9527731347365 21.4812268652635
30.5823194042095 12.2877731347365 2.6007731347364995
23.6987731347365 4.721226865263496 28.8483194042095
4.433226865263499 15.8937731347365 29.8877731347365
28.901319404209502 11.073680595790506 18.6002268652635
18.621226865263502 17.2297731347365 29.181226865263504
4.278226865263498 27.190226865263504 5.9972268652634995
31.8937731347365 3.408773134736501 2.6762268652634944
29.436773134736498 25.9637731347365 2.9366805957905058
24.246226865263502 5.992226865263497 28.806773134736503
1.8252268652634953 19.9247731347365 21.684226865263504
23.1937731347365 22.6157731347365 15.6387731347365
25.3967731347365 28.9967731347365 25.5642268652635
6.321680595790497 6.022226865263498 17.8232268652635
16.944226865263495 27.779226865263503 30.735319404209502
5.1616805957905 6.4872268652635015 23.223226865263506
23.7783194042095 14.7802268652635 10.239226865263497
7.563226865263495 6.5682268652635045 27.0907731347365
19.0427731347365 4.0767731347365 32.0327731347365
14.043773134736501 28.0987731347365 7.749680595790494
31.1693194042095 26.047226865263504 9.978319404209504
31.873773134736503 25.5077731347365 9.5242268652635
27.2437731347365 2.7622268652635 16.6277731347365
27.0893194042095 6.4547731347365005 20.6577731347365
18.833865673682496 30.934773134736503 19.5697731347365
18.4927731347365 16.950226865263495 14.1947731347365
3.0297731347365 31.453226865263495 10.0182268652635
22.897226865263498 0.5342268652634985 25.7567731347365
22.5467731347365 16.121319404209498 17.9512268652635
19.494226865263506 5.222226865263501 11.600226865263501
20.425226865263504 25.8142268652635 25.9332268652635
1.873773134736501 17.3137731347365 14.800226865263504
21.089226865263505 1.1662268652635035 0.6762268652634944
7.424226865263499 18.7252268652635 16.1152268652635
10.4327731347365 13.752680595790494 6.733226865263497
12.6372268652635 0.4456805957905061 30.325319404209502
26.7137731347365 17.3487731347365 25.9572268652635
21.2867731347365 14.1097731347365 7.2927731347365
6.4176805957905 25.0666805957905 12.473226865263499
1.7022268652635049 1.1992268652635047 12.5707731347365
32.075226865263495 3.2436805957904937 19.7677731347365
20.6957731347365 19.7953194042095 2.3706805957905033
28.8963194042095 17.2757731347365 8.770773134736501
12.6447731347365 4.4267731347365 0.1577731347364999
16.265226865263493 20.4717731347365 5.565226865263504
28.3407731347365 6.373226865263497 11.023226865263503
21.3337731347365 28.090680595790502 31.095226865263506
21.114773134736502 25.392226865263503 11.072226865263495
9.481319404209504 28.559773134736503 7.113226865263499
0.39622686526350037 13.1907731347365 11.601680595790498
29.8703194042095 6.577226865263505 10.062226865263504
16.232680595790498 9.991773134736501 31.5787731347365
23.169226865263504 30.6047731347365 12.8017731347365
1.819226865263495 26.0547731347365 13.3627731347365
23.720226865263506 31.785773134736502 12.3477731347365
25.2986805957905 30.5103194042095 13.965226865263496
7.412773134736501 6.0737731347365 11.8842268652635
5.498226865263497 4.869226865263499 16.495226865263497
1.2502268652634996 1.2562268652634998 26.2627731347365
13.733226865263497 19.382226865263497 25.006226865263493
25.016226865263498 11.946226865263505 30.8387731347365
5.426226865263494 4.767680595790495 22.6347731347365
30.267319404209502 7.184773134736501 6.833680595790497
22.9877731347365 18.447226865263495 17.214680595790497
7.906226865263498 20.839226865263505 13.5447731347365
24.998773134736503 18.4207731347365 19.204680595790506
14.970226865263498 23.798226865263494 19.8213194042095
23.539226865263494 11.8966805957905 20.375226865263507
17.7866805957905 7.664226865263501 26.401319404209502
7.540319404209502 11.0257731347365 1.2592268652635
27.242773134736503 3.8647731347365006 25.6562268652635
6.4487731347365 25.708226865263505 27.4872268652635
23.9307731347365 14.577226865263505 4.7117731347365
16.051226865263494 9.895773134736501 30.6337731347365
12.1017731347365 6.461226865263498 14.264226865263502
30.4427731347365 11.369773134736501 14.7717731347365
3.499226865263502 22.7457731347365 8.175226865263504
24.1947731347365 1.1322268652634975 12.8902268652635
27.486773134736502 11.190226865263504 26.813226865263495
8.4422268652635 19.030226865263494 27.002226865263502
23.5567731347365 16.7203194042095 18.6273194042095
12.2397731347365 30.828319404209502 19.0807731347365
23.7477731347365 20.547226865263504 8.3777731347365
27.8897731347365 2.5496805957905053 31.547773134736502
19.9437731347365 12.1767731347365 22.617226865263497
1.3726805957904986 31.143226865263493 15.5117731347365
7.978226865263501 11.444226865263495 14.9637731347365
16.855773134736502 30.1183194042095 2.9812268652635012
11.986226865263497 14.777773134736501 29.376773134736503
31.395319404209502 21.018226865263493 5.0127731347365
27.956226865263496 13.587226865263496 3.4907731347365
12.677773134736501 23.3853194042095 25.7007731347365
26.055319404209502 29.1387731347365 17.560226865263495
22.472680595790507 18.4327731347365 1.9192268652635036
7.2317731347365 12.4722268652635 12.7437731347365
25.0177731347365 31.5423194042095 13.361226865263497
27.5283194042095 6.011226865263502 17.1143194042095
26.119319404209502 18.995226865263497 4.8626805957904935
16.3987731347365 27.077680595790497 6.4867731347365005
21.4383194042095 25.5492268652635 4.2926805957905
6.3892268652635025 12.296134326317514 28.525226865263498
28.488319404209502 29.8597731347365 29.621865673682507
4.6127731347365 22.5672268652635 6.1312268652635
8.136226865263502 18.797773134736502 10.5507731347365
21.0127731347365 11.609680595790493 29.311773134736498
5.8597731347365 27.491773134736498 25.9907731347365
26.9657731347365 22.0767731347365 17.0167731347365
19.6583194042095 9.909680595790505 1.0542268652634945
0.4675880568445052 16.4657731347365 13.918226865263499
21.498226865263497 9.538226865263503 25.1567731347365
18.175226865263504 31.6337731347365 11.680680595790506
14.2837731347365 22.0607731347365 11.9052268652635
31.878773134736498 7.4977731347365 26.6007731347365
23.319226865263495 3.0042268652634974 3.158773134736501
18.205226865263505 17.550680595790496 12.7567731347365
31.6917731347365 20.5707731347365 10.386680595790494
12.648773134736501 23.0522268652635 4.854773134736501
19.5607731347365 16.3197731347365 28.2747731347365
9.209680595790502 14.2187731347365 25.925226865263504
15.4773194042095 13.273226865263503 2.7051343263175056
14.715319404209499 13.076319404209503 24.3803194042095
30.3327731347365 16.901226865263503 17.9327731347365
17.280226865263494 5.482773134736501 20.419773134736502
1.7737731347364996 16.9122268652635 14.907226865263503
27.442680595790506 31.0533194042095 22.899226865263493
30.7253194042095 21.1947731347365 10.7697731347365
9.985773134736501 12.5697731347365 2.0652268652635044
16.0697731347365 13.9377731347365 1.9637731347365008
26.6592268652635 23.3303194042095 0.3586805957905028
23.6307731347365 9.661226865263501 31.5023194042095
17.8647731347365 23.172773134736502 28.867226865263497
23.3507731347365 18.596319404209503 16.9452268652635
0.14922686526350049 4.358226865263497 4.401226865263503
7.219226865263501 23.2932268652635 22.747226865263507
24.375226865263507 11.7607731347365 13.845226865263498
1.8892268652635025 3.4846805957904934 24.7817731347365
25.2536805957905 17.6367731347365 14.121319404209498
18.991226865263506 4.079680595790492 26.596226865263496
20.4707731347365 31.7293194042095 22.6357731347365
18.5547731347365 4.228680595790493 2.8697731347364996
12.256680595790499 23.658226865263494 15.1517731347365
16.7537731347365 16.1267731347365 12.546226865263499
11.6597731347365 0.28231940420949897 26.414226865263494
11.615226865263502 26.0977731347365 2.8722268652634995
13.904226865263503 15.6337731347365 9.5642268652635
2.0027731347365005 3.701680595790492 18.5023194042095
31.303226865263504 29.5187731347365 18.2627731347365
16.385226865263498 15.770319404209499 29.0972268652635
24.2867731347365 0.9352268652634947 1.9916805957904984
8.888226865263498 8.9358656736825 24.946226865263505
21.5552268652635 26.465226865263496 11.7777731347365
2.887319404209503 22.184680595790496 8.0852268652635
14.5912268652635 6.123226865263497 21.4757731347365
10.6447731347365 1.4302268652634993 0.023226865263502816
8.531680595790505 19.724680595790502 16.389226865263502
1.7046805957904922 11.620226865263497 17.652226865263493
10.470680595790498 3.965226865263496 6.2062268652634955
27.4487731347365 5.380226865263502 17.511226865263502
8.5797731347365 16.3997731347365 6.519226865263498
24.2907731347365 17.4217731347365 19.4157731347365
1.5882268652635005 15.123226865263497 30.5057731347365
23.6563194042095 11.482773134736501 14.764773134736501
29.980773134736502 13.6753194042095 5.3312268652634955
30.361773134736502 30.9877731347365 26.502226865263502
27.9512268652635 20.7162268652635 5.3322268652635
4.433226865263499 0.6402268652635001 20.7317731347365
15.1376805957905 11.5007731347365 13.292226865263501
21.383226865263502 11.8617731347365 7.309773134736501
27.776226865263503 18.2297731347365 1.8246805957904968
31.2403194042095 13.8632268652635 4.130226865263502
22.3472268652635 20.314773134736498 22.9723194042095
24.2343194042095 8.620773134736499 31.062773134736503
18.2417731347365 11.4127731347365 10.6277731347365
25.145226865263503 5.1252268652635 7.4757731347364995
23.232226865263506 14.1222268652635 30.8383194042095
2.1897731347365 7.649773134736501 4.0152268652635
31.580226865263505 9.1957731347365 5.989226865263497
17.223226865263506 8.080226865263505 1.9653194042094988
28.483773134736502 14.651226865263503 4.281680595790505
3.117680595790503 4.8467731347365 24.934773134736503
26.0287731347365 12.4517731347365 22.7777731347365
6.3717731347365 6.5812268652634955 20.4527731347365
26.383226865263502 13.2667731347365 22.9493194042095
21.586226865263505 20.8437731347365 21.914226865263494
28.610319404209502 27.2257731347365 14.6807731347365
30.7017731347365 7.866680595790498 21.851226865263506
16.3187731347365 17.5336805957905 19.235680595790498
0.03722686526349861 9.847134326317516 6.5142268652635025
15.737680595790508 20.1937731347365 11.0747731347365
5.768680595790499 23.7137731347365 13.825773134736501
24.4997731347365 25.191226865263495 31.427773134736498
11.8782268652635 14.8077731347365 24.346226865263496
15.307226865263495 18.3063194042095 26.061773134736498
28.0552268652635 30.6093194042095 22.9452268652635
7.572226865263495 11.786226865263501 14.5777731347365
18.1747731347365 15.803680595790496 15.5317731347365
1.8316805957905018 25.379226865263497 29.116773134736498
25.4392268652635 19.8107731347365 9.546226865263499
28.627226865263502 7.9457731347365 21.9367731347365
12.215226865263496 22.236226865263497 15.0067731347365
12.791226865263503 7.244226865263499 27.1537731347365
0.23968059579050305 17.1587731347365 14.315226865263504
0.1382268652634977 1.6972268652634952 26.7803194042095
7.116680595790498 7.145226865263503 22.0792268652635
0.6422268652635026 16.9287731347365 15.2447731347365
11.219680595790493 13.1927731347365 17.4482268652635
13.376226865263497 28.8797731347365 1.8382268652635005
30.9517731347365 6.455226865263505 32.0117731347365
12.203226865263495 15.542226865263501 11.6707731347365
22.050226865263504 7.311319404209502 24.872226865263507
2.104226865263499 30.989773134736502 2.525319404209501
0.9486805957905062 19.750226865263507 9.921773134736501
11.685680595790501 10.0857731347365 23.2543194042095
12.828680595790502 27.5882268652635 12.160226865263503
20.396226865263493 20.7633194042095 24.0607731347365
4.1517731347365 27.544773134736502 25.9357731347365
1.9067731347365005 14.4572268652635 21.271226865263493
24.0687731347365 8.5552268652635 0.17522686526350384
31.683773134736498 2.8612268652634967 2.2097731347364995
22.027226865263493 25.678226865263504 31.797226865263504
12.770226865263503 29.635226865263498 23.400226865263498
25.929226865263495 31.6892268652635 22.016226865263498
28.7783194042095 6.9037731347365 22.934226865263504
15.293773134736501 18.411226865263494 5.817680595790506
25.108226865263497 4.613680595790498 27.788226865263503
3.8662268652634992 2.6552268652635007 7.200226865263495
31.483773134736502 10.287226865263499 13.505226865263502
12.6947731347365 5.4056805957905 1.006680595790499
23.422226865263504 20.182226865263495 9.0103194042095
1.8132268652634949 24.5797731347365 14.1217731347365
11.025680595790504 3.735680595790498 20.7667731347365
13.004680595790504 24.0907731347365 23.5243194042095
27.8262268652635 18.7633194042095 21.3167731347365
25.2842268652635 29.1652268652635 5.104680595790498
12.9617731347365 25.279319404209502 22.849773134736502
12.1087731347365 14.7742268652635 3.1052268652634964
26.470226865263506 18.774226865263493 14.4327731347365
26.1532268652635 2.9846805957904934 31.947226865263495
21.7807731347365 10.7412268652635 14.0867731347365
3.6167731347364995 16.6622268652635 10.888226865263498
14.252226865263502 28.8877731347365 8.014226865263502
0.1716805957905052 21.532226865263503 10.642773134736501
27.8412268652635 30.175773134736502 9.2832268652635
10.452680595790497 15.1252268652635 6.630680595790494
10.1813194042095 12.6252268652635 1.5246805957904996
32.01822686526349 13.7587731347365 26.873773134736503
27.0402268652635 21.372226865263507 28.9932268652635
25.7932268652635 6.207680595790492 32.059226865263504
19.018226865263493 25.9542268652635 11.981226865263501
21.4386805957905 19.078226865263495 28.722680595790507
5.532226865263503 1.6626805957905049 6.6027731347365
14.428680595790496 15.522226865263498 17.6357731347365
6.130226865263502 5.0897731347365 0.3877731347365003
17.8917731347365 10.279773134736502 12.044226865263504
30.058319404209502 26.190773134736503 32.053226865263504
31.751773134736503 23.4512268652635 17.339226865263505
31.5757731347365 13.365319404209497 10.924773134736501
28.504226865263497 10.493680595790494 28.1477731347365
23.4557731347365 16.982226865263506 21.9422268652635
13.867226865263497 29.2372268652635 13.680773134736501
14.2382268652635 23.3263194042095 15.853319404209504
5.930226865263499 1.8252268652634953 29.4173194042095
15.998226865263497 15.7973194042095 29.983226865263497
28.806773134736503 7.805226865263499 23.1357731347365
6.029226865263503 20.944226865263495 22.5097731347365
29.6183194042095 5.091680595790493 9.4452268652635
5.011773134736501 21.148226865263503 1.165680595790505
21.8217731347365 13.253680595790499 7.006680595790499
8.5387731347365 27.0427731347365 27.6397731347365
17.5937731347365 6.806226865263504 20.6127731347365
27.0727731347365 11.899773134736499 10.7682268652635
4.040773134736501 4.117226865263497 12.031226865263498
16.5942268652635 31.113773134736498 8.856226865263501
3.7473194042095024 14.5242268652635 2.6156805957904936
3.7172268652634983 0.19522686526349986 8.2617731347365
25.9097731347365 12.3307731347365 22.334226865263496
17.285773134736502 30.5972268652635 9.151226865263503
23.306226865263504 5.813680595790501 11.3597731347365
3.1762268652634944 21.5347731347365 8.252226865263502
10.2557731347365 2.8457731347365005 6.677680595790505
4.602680595790503 31.6427731347365 19.892226865263503
24.8477731347365 27.744319404209502 8.200773134736501
1.8902268652635001 8.8567731347365 9.2537731347365
14.8767731347365 13.520226865263503 3.306680595790496
6.495680595790503 24.236226865263497 28.7072268652635
3.131680595790499 15.4397731347365 30.6443194042095
24.4827731347365 29.1107731347365 18.723226865263506
5.1537731347365 30.0167731347365 30.6417731347365
8.931773134736499 7.091773134736501 26.0433194042095
11.877680595790494 16.1537731347365 31.184226865263504
11.374226865263502 14.607226865263499 5.9237731347365
22.1197731347365 19.3827731347365 3.2852268652635033
7.7986805957905005 23.2837731347365 23.2657731347365
14.424226865263499 3.6586805957905 11.360226865263499
26.6532268652635 7.026226865263503 20.0587731347365
7.087226865263496 15.392226865263503 24.8502268652635
4.574226865263505 15.4517731347365 9.665226865263499
24.436773134736498 27.8607731347365 23.6337731347365
32.175226865263504 8.666226865263503 26.1742268652635
9.0777731347365 28.499226865263502 26.2393194042095
7.908226865263501 7.240680595790494 8.6312268652635
20.1137731347365 6.372680595790499 30.6562268652635
25.3857731347365 22.4597731347365 25.3347731347365
29.9003194042095 5.802680595790505 1.9082268652635008
9.6697731347365 23.0267731347365 26.768226865263493
0.23677313473650052 9.635226865263498 27.3237731347365
5.5677731347365 16.837226865263496 21.8383194042095
23.5702268652635 21.7347731347365 20.044773134736502
20.9422268652635 19.605773134736502 12.2857731347365
8.9727731347365 14.461226865263498 21.3677731347365
21.7217731347365 4.137319404209503 14.590319404209499
10.0357731347365 7.241226865263499 25.5403194042095
22.270319404209502 24.2817731347365 4.531226865263498
28.811319404209502 16.525226865263498 10.119319404209502
28.738865673682497 30.3483194042095 1.2772268652635006
15.035226865263503 23.7607731347365 18.0893194042095
7.7757731347365 16.798226865263494 15.8347731347365
14.9953194042095 18.498226865263497 20.5987731347365
26.6763194042095 30.5077731347365 30.4513194042095
6.360226865263499 12.3437731347365 30.2137731347365
30.0177731347365 14.109680595790493 22.590319404209502
18.183319404209502 14.0737731347365 16.4947731347365
6.190226865263504 30.5077731347365 22.9417731347365
15.208226865263498 18.9493194042095 5.0137731347365
17.9187731347365 9.113680595790498 19.9482268652635
23.1067731347365 24.7027731347365 3.248226865263497
30.090680595790502 25.467226865263505 30.505226865263502
30.590226865263496 31.5943194042095 27.014226865263502
24.1383194042095 24.5407731347365 31.8857731347365
18.5207731347365 11.711226865263498 30.0817731347365
31.4847731347365 22.035773134736502 21.1947731347365
21.6407731347365 0.7272268652634963 22.6623194042095
21.3637731347365 5.923226865263501 16.753226865263507
30.620773134736503 30.119865673682497 2.6927731347365
27.518226865263493 6.467226865263498 11.2657731347365
6.482773134736501 5.1222268652634995 16.7007731347365
29.889319404209502 29.400226865263498 2.444226865263495
28.8837731347365 5.263226865263498 7.035226865263503
12.953773134736501 30.221226865263496 18.3767731347365
20.6107731347365 2.637319404209503 21.303226865263504
25.1676805957905 23.525865673682503 15.318226865263505
7.052226865263499 6.925773134736501 8.439319404209503
29.578319404209502 7.0792268652635 11.2627731347365
2.7046805957904922 16.5342268652635 9.3177731347365
8.799226865263499 15.932226865263495 25.867226865263497
1.1243194042094977 14.2457731347365 26.7927731347365
13.277773134736501 27.251773134736503 19.761226865263502
31.7957731347365 16.105226865263496 6.681226865263504
6.725226865263501 25.0883194042095 5.269865673682503
17.5627731347365 0.49822686526349713 15.778226865263498
28.8077731347365 11.5227731347365 17.8637731347365
20.3837731347365 0.020226865263502702 24.8487731347365
24.503773134736498 7.280773134736501 11.965773134736502
2.7612268652635024 12.516226865263498 4.685226865263495
3.0387731347365 6.325680595790502 12.9602268652635
28.9643194042095 11.5097731347365 26.9127731347365
19.697226865263495 32.107319404209505 27.1377731347365
29.2557731347365 29.8082268652635 25.003773134736498
16.255226865263502 9.126226865263497 31.846226865263496
6.550680595790496 18.9542268652635 26.4122268652635
27.314773134736498 21.3262268652635 9.2567731347365
16.358226865263497 11.315226865263504 6.238773134736499
19.0777731347365 15.7177731347365 12.560680595790501
24.253773134736498 8.078773134736501 29.5552268652635
1.4592268652634957 17.9773194042095 2.9352268652634947
8.232226865263499 7.809773134736501 8.100226865263501
15.121319404209498 4.609226865263501 21.346226865263496
26.7017731347365 29.9673194042095 29.861773134736502
20.8682268652635 21.0317731347365 13.8992268652635
24.2217731347365 7.417226865263501 11.067680595790506
18.681226865263504 11.369773134736501 29.431226865263504
16.264226865263502 6.410226865263503 21.7587731347365
0.7557731347365007 21.9217731347365 22.0117731347365
29.6547731347365 2.248226865263497 31.560226865263495
26.5433194042095 0.41177313473649946 17.9287731347365
0.1552268652635007 5.968226865263496 4.678680595790496
1.9962268652635018 23.970226865263506 23.0767731347365
12.821680595790497 3.6862268652634995 10.481226865263501
5.3842268652635 30.7372268652635 29.1247731347365
12.487226865263501 24.6297731347365 4.2302268652634964
19.2072268652635 7.263680595790504 10.142226865263503
15.8322268652635 19.9257731347365 24.309226865263504
22.633226865263502 31.898226865263503 6.946226865263505
1.2797731347364998 8.4517731347365 5.2917731347365
15.3147731347365 4.523680595790495 2.4452268652635
18.7327731347365 27.1527731347365 14.725226865263501
18.2747731347365 17.663773134736502 13.7437731347365
29.8082268652635 25.125226865263507 30.8183194042095
15.165226865263499 28.4512268652635 31.689319404209503
18.1703194042095 21.178773134736502 22.1592268652635
27.7967731347365 15.1327731347365 17.456226865263496
31.5907731347365 31.992226865263497 26.812773134736503
20.9392268652635 3.2657731347365004 20.922226865263504
15.483226865263497 0.7492268652635019 7.604226865263499
15.1167731347365 11.8632268652635 14.1952268652635
18.858226865263497 11.606226865263501 2.0826805957904924
2.0762268652635 31.1943194042095 3.1257731347365
31.0837731347365 10.1217731347365 13.8007731347365
31.9782268652635 19.8817731347365 21.2627731347365
13.34886567368251 29.869226865263506 9.044680595790496
27.065773134736503 29.9873194042095 22.239226865263497
7.3347731347364995 28.805773134736498 5.482773134736501
9.674226865263499 1.2742268652635005 22.6337731347365
20.505226865263502 24.621680595790508 26.1547731347365
22.697226865263495 10.6372268652635 20.968319404209502
9.935226865263495 1.0407731347365008 21.8067731347365
6.674226865263499 5.697226865263495 18.586226865263505
10.9722268652635 12.3227731347365 2.1271343263175027
2.4097731347365006 2.581680595790502 26.084319404209502
15.599226865263496 20.9537731347365 0.004226865263497359
14.2017731347365 26.3747731347365 25.135226865263498
22.2867731347365 0.07777313473649983 31.1693194042095
9.321226865263505 31.7057731347365 1.6996805957904968
19.0747731347365 15.344773134736501 16.4193194042095
22.2836805957905 22.5113194042095 20.198680595790506
4.0737731347365 30.5253194042095 9.611226865263497
32.0382268652635 2.3186805957904966 3.5877731347364996
2.1087731347365004 10.9137731347365 20.5947731347365
20.4362268652635 10.3932268652635 29.8447731347365
3.5826805957904924 15.0377731347365 2.7177731347365004
21.575319404209502 19.3767731347365 13.4632268652635
7.934226865263504 22.6982268652635 27.8827731347365
28.6593194042095 25.2252268652635 19.6693194042095
30.9237731347365 24.8833194042095 3.1806805957905055
29.517865673682508 2.6997731347364997 14.292319404209504
16.1407731347365 10.9457731347365 12.950773134736501
19.9117731347365 4.892226865263503 9.203773134736501
27.9657731347365 25.0057731347365 11.6417731347365
19.0657731347365 4.454680595790492 21.3907731347365
31.8623194042095 14.950319404209498 5.966773134736501
11.797226865263504 21.3987731347365 29.2363194042095
27.184773134736503 20.2746805957905 15.8757731347365
8.642226865263503 2.033773134736501 10.4787731347365
8.6327731347365 16.2437731347365 25.431773134736503
11.6582268652635 29.7637731347365 7.9606805957904925
18.5547731347365 20.8797731347365 23.2417731347365
6.924680595790505 30.3713194042095 16.599226865263496
14.403226865263498 19.801226865263494 0.2597731347365002
4.3177731347365 26.084319404209502 0.3267731347365004
7.093226865263496 27.9003194042095 4.552680595790505
23.358773134736502 16.0917731347365 10.7847731347365
9.8047731347365 8.8297731347365 18.9773194042095
28.4893194042095 11.4677731347365 7.2012268652635
31.2583194042095 25.460680595790507 2.7097731347364995
9.386226865263502 23.893226865263493 1.080680595790497
7.0533194042095 13.221319404209499 6.696226865263505
8.0027731347365 27.0972268652635 26.363319404209502
10.476226865263499 21.000773134736498 7.546226865263499
25.6862268652635 0.5037731347365 6.174226865263499
30.241773134736498 14.1252268652635 4.984226865263501
7.535226865263503 21.461226865263505 10.404226865263503
12.734319404209504 3.791134326317504 18.6257731347365
22.8592268652635 6.854773134736501 3.287680595790505
21.985226865263506 4.9307731347365 2.1162268652634992
24.523319404209502 20.8243194042095 8.8337731347365
11.706226865263496 30.139319404209502 21.281680595790505
19.186319404209502 20.976226865263506 18.0792268652635
20.2932268652635 32.1457731347365 26.485319404209502
25.733773134736502 1.5762268652635 9.047226865263504
32.0998656736825 7.1537731347365 14.200319404209498
3.6722268652635037 17.5453194042095 2.7207731347365005
20.158226865263494 5.9542268652635 24.9937731347365
13.443226865263505 31.899226865263493 30.5882268652635
25.1092268652635 29.379226865263497 1.8832268652635022
28.9847731347365 28.2193194042095 23.8327731347365
14.7227731347365 3.9872268652635015 10.0242268652635
0.7606805957905038 23.9752268652635 26.9633194042095
17.6557731347365 21.111773134736502 5.3467731347365
12.261226865263502 23.9767731347365 24.558319404209502
20.471226865263496 30.996226865263502 25.3457731347365
24.751226865263497 22.711226865263505 25.8747731347365
18.671680595790505 31.744773134736498 26.7243194042095
4.159773134736501 25.7867731347365 0.6232268652634971
13.3237731347365 4.000680595790499 3.171226865263499
28.1477731347365 16.600134326317516 9.213773134736499
20.4787731347365 3.9167731347365002 8.9882268652635
21.925773134736502 4.914226865263501 29.0237731347365
15.3437731347365 5.252226865263502 8.895773134736501
12.2367731347365 23.5737731347365 4.9146805957905
14.115226865263502 29.736773134736502 26.7297731347365
19.410226865263503 8.648773134736501 16.7237731347365
27.9843194042095 21.7573194042095 26.5147731347365
9.9787731347365 25.690226865263504 8.324226865263505
13.040134326317514 13.420226865263501 17.7707731347365
2.7607731347364997 10.789226865263501 0.7706805957904947
9.7307731347365 8.903226865263498 29.369773134736498
10.3632268652635 21.252226865263502 21.0552268652635
13.1877731347365 18.595226865263506 15.0707731347365
11.1922268652635 23.3003194042095 22.9307731347365
14.956226865263496 21.5877731347365 31.8257731347365
24.6687731347365 25.785773134736502 26.3227731347365
32.14022686526349 9.074680595790497 28.4817731347365
23.9272268652635 0.10968059579049338 0.19522686526349986
1.8196805957905013 17.1757731347365 25.0912268652635
9.856226865263501 9.357680595790498 18.489680595790503
11.602680595790503 24.3887731347365 15.217226865263498
29.7162268652635 25.828319404209502 3.0542268652634945
15.127226865263502 11.068226865263505 7.767226865263503
20.3133194042095 21.8387731347365 28.0393194042095
5.8877731347365 28.315226865263504 31.0757731347365
30.2657731347365 12.461680595790497 20.3867731347365
25.8857731347365 21.254226865263497 9.3782268652635
19.268865673682498 30.0063194042095 3.8262268652635
0.21922686526350077 7.965226865263496 22.637226865263493
30.688226865263495 21.8977731347365 31.8613194042095
8.586226865263498 16.9527731347365 1.1193194042095023
16.2467731347365 19.01768059579051 4.039319404209504
17.9447731347365 12.126226865263497 21.8357731347365
17.4817731347365 2.7442268652634993 2.7757731347365002
24.282226865263503 16.307226865263495 10.316226865263495
4.715226865263496 22.568134326317505 29.7493194042095
31.090319404209502 22.215226865263496 7.8552268652634964
8.1952268652635 2.0992268652634962 11.328226865263495
21.2557731347365 29.718319404209502 8.0822268652635
14.9482268652635 20.3947731347365 0.7702268652635027
14.9587731347365 20.8307731347365 0.7917731347365002
22.8827731347365 6.9542268652635 11.511226865263502
4.888226865263498 0.580680595790497 7.086226865263498
13.6547731347365 23.625226865263507 15.0517731347365
0.9796805957904979 21.9153194042095 22.8637731347365
3.300226865263504 0.5992268652634962 7.1127731347365
14.502226865263502 0.6752268652635038 22.9427731347365
10.4067731347365 7.097226865263501 13.2217731347365
18.1577731347365 16.2077731347365 14.8657731347365
11.2532268652635 20.596226865263496 21.8767731347365
1.6457731347364994 8.712773134736501 19.8543194042095
0.5122268652635 1.6476805957905043 13.657226865263503
17.0636805957905 27.5067731347365 19.6487731347365
25.14268059579051 26.5867731347365 25.9893194042095
32.089319404209505 4.611226865263497 8.3717731347365
10.068226865263505 1.9342268652635042 22.14568059579051
26.0363194042095 25.7177731347365 12.6447731347365
15.9572268652635 20.4212268652635 24.9212268652635
12.3787731347365 27.2103194042095 19.9647731347365
19.3517731347365 32.0797731347365 27.489226865263497
21.9307731347365 17.1843194042095 2.7232268652634986
18.8917731347365 5.6586805957905 5.0157731347365
6.465226865263496 19.943226865263505 11.261226865263502
2.7887731347365 31.039226865263494 2.3102268652634947
21.145226865263503 27.9643194042095 28.4422268652635
13.069226865263495 15.0237731347365 11.4527731347365
15.391226865263498 4.299773134736501 22.271226865263493
20.285773134736502 19.626226865263497 2.0396805957905
25.065773134736503 23.6827731347365 23.465226865263496
19.5726805957905 23.0413194042095 29.458226865263505
27.388226865263498 24.750773134736498 31.0533194042095
6.777226865263501 14.745226865263497 25.0612268652635
24.4797731347365 28.578226865263495 2.472680595790493
0.7512268652634972 24.7992268652635 19.3267731347365
4.815226865263504 24.8233194042095 21.268226865263493
19.268226865263493 18.8247731347365 28.7573194042095
16.6923194042095 2.2497731347365004 16.455226865263505
14.2102268652635 13.993226865263502 3.5246805957904996
16.614226865263497 28.6532268652635 16.289226865263494
2.3807731347365007 19.944226865263495 3.6357731347364997
20.8827731347365 12.709226865263496 6.372680595790499
19.402226865263493 31.375319404209502 27.312226865263504
8.7167731347365 29.173226865263494 5.5477731347365005
19.245226865263497 7.976226865263499 25.183680595790506
4.153226865263498 12.134319404209503 26.4413194042095
21.5743194042095 28.114680595790503 11.346226865263496
5.4367731347365 9.9912268652635 25.8533194042095
2.063226865263495 7.926226865263494 19.1847731347365
0.08822686526350054 9.237680595790493 25.9687731347365
13.048226865263501 11.480226865263496 21.9787731347365
2.062773134736501 17.953226865263495 9.063226865263495
12.0087731347365 27.3547731347365 2.458226865263498
4.7776805957905 10.8427731347365 27.675773134736502
23.189773134736498 14.973226865263499 30.9283194042095
11.337226865263496 5.179680595790501 0.5902268652634959
14.421773134736501 6.039226865263501 10.5667731347365
3.299773134736501 1.9082268652635008 9.1587731347365
3.8782268652634997 15.159319404209501 12.058680595790506
10.7162268652635 10.255226865263502 21.6797731347365
25.2283194042095 30.745773134736503 29.8407731347365
11.253680595790499 22.8457731347365 9.258680595790494
23.158226865263494 17.7222268652635 18.5797731347365
16.014226865263502 26.816226865263495 31.9437731347365
0.9572268652635003 25.0972268652635 18.5877731347365
10.203226865263495 21.068226865263505 21.925226865263504
21.275226865263498 23.2713194042095 8.4572268652635
12.825226865263495 9.252226865263502 6.7622268652635
27.1587731347365 31.9603194042095 17.9662268652635
27.2863194042095 31.078319404209502 12.456773134736501
0.3222268652634952 13.449226865263505 9.866773134736501
31.1413194042095 13.7012268652635 4.733226865263497
5.794680595790496 27.4212268652635 31.0207731347365
26.863773134736498 16.8076805957905 0.5956805957904976
26.1802268652635 20.5497731347365 5.7637731347365
20.736226865263497 18.854226865263506 3.4662268652635007
7.5587731347365 14.4047731347365 6.5212268652635
17.541773134736502 8.7087731347365 2.0412268652635035
19.7367731347365 9.725226865263501 6.2912268652635035
2.2872268652634986 10.394226865263498 0.7802268652635007
9.258319404209498 9.5377731347365 31.599773134736502
10.2557731347365 14.426226865263494 7.189680595790506
29.5187731347365 5.3696805957904985 16.270226865263503
28.5883194042095 3.5587731347364997 14.444226865263495
20.8352268652635 17.385226865263498 23.7207731347365
13.741773134736501 8.486226865263497 3.6632268652635034
31.8933194042095 24.5667731347365 3.9457731347365
2.056226865263504 28.288773134736502 24.5147731347365
14.291680595790496 30.6373194042095 7.2697731347365
14.075680595790502 19.143226865263493 24.7007731347365
8.412226865263499 11.077226865263505 14.8303194042095
21.5047731347365 5.777773134736501 17.0187731347365
15.5977731347365 20.783226865263494 6.627226865263502
27.0637731347365 22.797680595790496 5.040226865263499
14.653226865263498 13.387319404209503 24.190773134736503
29.0492268652635 7.258680595790494 0.5986805957904977
5.1432268652635 0.49777313473649976 15.6892268652635
19.0863194042095 9.161226865263501 16.2307731347365
28.0372268652635 21.0927731347365 16.595226865263506
26.1892268652635 3.8202268652635 16.913226865263503
8.0297731347365 4.858680595790503 1.7397731347365006
19.503226865263507 24.3653194042095 25.175773134736502
31.503226865263507 32.128773134736505 25.860226865263506
17.1437731347365 1.0056805957904942 16.669226865263504
30.9843194042095 4.192319404209503 8.493134326317502
18.0666805957905 26.9147731347365 22.0822268652635
8.419226865263504 13.8047731347365 25.927773134736498
3.502226865263502 14.093226865263496 16.7192268652635
15.2077731347365 7.1662268652635035 15.318226865263505
27.0083194042095 30.0637731347365 11.1402268652635
12.2287731347365 26.5792268652635 20.473226865263506
11.745226865263497 13.9632268652635 6.491226865263499
16.0533194042095 7.311680595790506 15.0887731347365
1.7272268652634963 21.267226865263503 3.3086805957905057
24.9443194042095 24.2843194042095 4.9392268652635
24.6527731347365 14.0167731347365 25.6892268652635
15.8947731347365 8.5727731347365 19.8292268652635
8.3662268652635 0.4636805957904926 3.6122268652635015
2.5272268652635006 14.426226865263494 22.9553194042095
28.8947731347365 3.6757731347365006 8.6707731347365
27.6377731347365 31.369226865263506 21.4812268652635
11.6772268652635 16.644226865263498 9.053226865263504
6.7897731347365 13.023680595790495 0.857680595790498
6.7477731347365 7.712226865263496 8.427680595790505
2.7122268652634958 30.875773134736498 27.6107731347365
5.147680595790504 29.1376805957905 15.9867731347365
8.258319404209498 29.372226865263507 6.5837731347365
3.0626805957904963 32.0822268652635 3.425226865263504
20.5557731347365 8.507226865263497 24.637226865263493
25.5793194042095 21.3727731347365 10.0732268652635
3.8477731347364994 30.995773134736503 15.1647731347365
13.8202268652635 2.2682268652635003 25.1977731347365
28.471319404209503 30.305773134736498 28.569226865263495
30.6477731347365 12.424773134736501 16.119226865263506
29.2372268652635 26.7347731347365 20.9987731347365
28.689773134736498 8.936773134736502 13.010226865263498
14.2626805957905 30.3267731347365 27.241773134736498
5.752680595790494 24.754226865263497 12.008226865263502
28.2557731347365 21.762226865263493 27.4272268652635
15.2257731347365 1.5322268652635032 22.9237731347365
20.6197731347365 22.190226865263504 19.9932268652635
25.0923194042095 26.669773134736502 6.700680595790502
4.2117731347365 21.1907731347365 6.886680595790494
19.5053194042095 8.017773134736501 10.6477731347365
16.996226865263502 2.8967731347365007 6.537226865263499
5.397226865263498 0.7172268652634983 20.1922268652635
8.708319404209501 28.5672268652635 20.9452268652635
10.990680595790494 24.0167731347365 2.623226865263497
20.618680595790508 28.2023194042095 26.9723194042095
28.786226865263494 26.757411943155503 3.928226865263504
4.167226865263501 21.208226865263505 6.492680595790503
20.6717731347365 22.1903194042095 13.4692268652635
0.6222268652634995 18.1187731347365 14.7407731347365
25.707865673682505 6.614773134736501 32.0663194042095
1.6556805957904999 20.3917731347365 30.613773134736498
8.483226865263497 28.9447731347365 11.418680595790505
25.797226865263504 20.4937731347365 0.13377313473650077
28.518226865263493 30.666773134736502 7.160226865263503
10.928226865263504 9.545226865263501 8.5122268652635
3.7072268652635003 3.586226865263498 0.015226865263500144
18.610226865263506 31.605773134736502 11.230680595790503
19.2027731347365 26.4657731347365 11.192680595790506
8.363319404209502 20.9272268652635 13.089226865263498
15.6777731347365 26.500319404209502 31.496226865263502
30.687226865263504 11.4397731347365 18.007226865263497
11.316226865263495 17.0247731347365 13.828773134736501
26.353680595790507 14.627226865263502 23.410226865263503
3.4277731347364995 6.578773134736501 24.2087731347365
10.733865673682502 22.2312268652635 31.2223194042095
18.8043194042095 12.2652268652635 28.536226865263494
28.7623194042095 11.651226865263503 7.534773134736501
7.187226865263504 27.660226865263503 26.4152268652635
12.3267731347365 15.5717731347365 29.6742268652635
22.525226865263498 0.5452268652635013 17.7547731347365
28.2883194042095 30.3963194042095 8.936773134736502
6.5877731347365 19.496226865263502 27.4177731347365
7.212226865263496 24.4737731347365 28.0607731347365
26.713680595790507 30.331226865263496 12.8217731347365
17.3127731347365 16.7836805957905 12.5707731347365
1.1292268652634974 23.3287731347365 25.8927731347365
17.5637731347365 15.187773134736501 3.1282268652634997
9.645680595790495 22.517226865263503 8.430773134736501
6.732680595790498 4.512319404209503 1.1937731347364995
11.2347731347365 0.3012268652634944 25.3363194042095
18.5377731347365 3.749680595790494 2.4292268652634945
3.918773134736501 16.534680595790505 3.0366805957905
11.432226865263495 15.909680595790505 13.120680595790503
0.988319404209502 12.8867731347365 11.042319404209504
30.0453194042095 7.673226865263501 0.6226805957904986
31.6127731347365 26.9557731347365 8.627226865263502
31.0582268652635 22.8817731347365 4.633773134736501
25.456226865263496 5.9297731347365 11.540226865263499
7.606226865263501 19.3247731347365 16.482226865263506
3.181226865263504 15.575773134736501 3.1846805957904962
30.612680595790508 6.687680595790496 10.295226865263501
15.8537731347365 16.8562268652635 20.3777731347365
13.906680595790505 4.676226865263494 10.101226865263499
19.285226865263503 21.1862268652635 0.6023194042094993
4.322226865263495 26.896226865263493 14.181226865263504
6.175773134736501 18.520226865263503 22.6017731347365
18.2237731347365 19.057226865263495 8.8687731347365
1.975680595790493 19.3577731347365 30.033226865263494
30.657319404209503 12.0217731347365 19.3773194042095
29.3217731347365 30.516226865263498 18.035226865263503
4.2187731347365 2.0212268652635004 7.7337731347365
27.983773134736502 24.2547731347365 20.0642268652635
12.483865673682502 22.519680595790504 4.561680595790506
16.134773134736502 31.0227731347365 7.5002268652635
27.932226865263495 6.699226865263505 5.049226865263499
15.859226865263501 18.5407731347365 20.595226865263506
14.155773134736501 13.3472268652635 18.3292268652635
22.413226865263503 25.096319404209503 0.24368059579049373
28.393226865263493 3.593226865263496 26.342226865263505
27.602226865263496 30.870680595790503 11.416226865263503
10.6277731347365 2.9287731347365007 23.472680595790507
30.953226865263495 22.9993194042095 15.4632268652635
27.556773134736503 12.952680595790497 11.1372268652635
24.2037731347365 31.308773134736498 19.6357731347365
22.036226865263494 31.4643194042095 6.946226865263505
29.7957731347365 7.3627731347365 0.10868059579050282
22.7842268652635 6.690226865263504 18.096319404209503
24.5013194042095 29.178226865263504 18.0827731347365
14.013226865263498 5.613226865263499 10.2267731347365
30.3277731347365 13.635680595790504 22.952680595790497
14.865226865263502 31.4877731347365 7.148226865263503
22.8457731347365 2.447226865263495 2.2227731347364994
4.287773134736501 21.871226865263502 31.9087731347365
18.6766805957905 8.9127731347365 16.692773134736502
24.742773134736503 24.5696805957905 4.240680595790494
10.2012268652635 1.8392268652634982 32.1407731347365
0.07068059579050612 12.1607731347365 31.806773134736503
19.644680595790504 31.753226865263507 26.463411943155492
11.1757731347365 24.0107731347365 3.363226865263499
2.905773134736501 9.046226865263499 0.3347731347364995
23.6747731347365 18.4392268652635 18.750226865263507
1.495226865263497 9.231226865263501 30.9643194042095
24.782226865263503 10.465680595790502 15.982226865263506
4.8782268652635 21.6447731347365 21.9632268652635
17.312226865263504 24.3577731347365 27.614226865263497
27.9182268652635 9.839680595790497 1.8397731347365003
18.632226865263497 4.0246805957905 3.2046805957904922
20.700319404209502 27.6997731347365 3.8382268652635005
4.828226865263495 26.113773134736498 5.4557731347365
19.2097731347365 7.856226865263501 11.779226865263503
14.2543194042095 27.721319404209503 12.8877731347365
10.675226865263504 18.6237731347365 21.4117731347365
31.703319404209502 7.095319404209501 22.4317731347365
6.150226865263498 12.817680595790506 29.1363194042095
1.3507731347364995 8.641680595790504 15.9797731347365
