24.4572268652635 20.9553194042095 15.6053194042095
26.7162268652635 1.8092268652635042 28.235226865263506
20.8423194042095 9.809226865263504 24.6652268652635
0.4517731347365004 29.565773134736503 15.3437731347365
6.6487731347365 13.5302268652635 31.0947731347365
8.633680595790494 19.7043194042095 22.5097731347365
26.1823194042095 10.241773134736501 9.048226865263501
5.3757731347365 19.1017731347365 8.2587731347365
13.933680595790506 29.071226865263505 17.349773134736502
0.2702268652635027 8.186773134736502 28.944226865263495
20.1957731347365 12.197226865263495 4.554680595790501
5.864680595790503 23.3537731347365 12.918773134736501
29.715226865263496 9.967319404209501 7.681680595790496
5.6646805957905 18.7477731347365 17.760226865263498
16.4327731347365 21.9917731347365 6.329319404209503
22.474773134736502 3.8936805957904994 16.6727731347365
15.876773134736501 0.4347731347365009 31.9223194042095
4.956773134736501 19.587680595790502 24.2098656736825
15.437773134736501 25.1323194042095 18.6682268652635
31.495773134736503 22.1307731347365 4.2106805957904925
25.0612268652635 22.980773134736502 23.6772268652635
4.239226865263497 31.150865673682503 4.475680595790493
10.980226865263496 16.758134326317503 13.1057731347365
11.978680595790493 11.7772268652635 26.8847731347365
3.248226865263497 18.3022268652635 19.595680595790498
28.5327731347365 14.3207731347365 14.0017731347365
8.189680595790506 11.704680595790492 17.6982268652635
25.1977731347365 21.896226865263493 14.587226865263496
25.8412268652635 21.9183194042095 4.0187731347365006
29.082680595790507 22.5097731347365 11.730226865263496
2.893319404209503 5.4617731347365 19.026226865263503
32.098773134736504 29.178773134736502 15.843319404209499
20.8593194042095 19.9863194042095 31.777226865263493
6.153226865263498 0.8596805957904934 11.264680595790495
2.580226865263505 18.147680595790504 27.311319404209502
31.6883194042095 25.3993194042095 11.8037731347365
28.9527731347365 3.5457731347365 16.5193194042095
5.902226865263501 27.2827731347365 25.343319404209502
18.4847731347365 25.3183194042095 11.228680595790493
13.708226865263498 6.617680595790503 29.798226865263494
3.546773134736501 0.7292268652634988 9.5427731347365
29.408226865263494 18.2102268652635 27.846319404209503
18.2297731347365 0.8742268652635019 3.7602268652634976
8.6922268652635 3.1426805957904946 8.561680595790506
31.610226865263506 9.3992268652635 21.535226865263503
3.1382268652634977 19.0243194042095 25.873773134736503
17.0023194042095 10.1677731347365 32.14622686526349
14.2162268652635 6.453773134736501 31.526319404209502
11.2772268652635 29.739773134736502 7.518680595790499
26.0877731347365 13.8837731347365 2.7947731347365004
29.0877731347365 25.0702268652635 17.139226865263502
15.4388656736825 30.62768059579051 31.89268059579051
32.1677731347365 15.023680595790495 21.9627731347365
21.927680595790505 13.840226865263496 5.6806805957905055
22.919773134736502 16.321680595790497 24.0067731347365
7.0812268652634955 10.951680595790492 16.1797731347365
17.8697731347365 21.535773134736502 6.193680595790497
7.774773134736501 24.9272268652635 14.035226865263503
20.4707731347365 12.6053194042095 16.4602268652635
25.798226865263494 14.058319404209502 29.791773134736502
0.24431940420950227 14.9773194042095 9.1597731347365
22.0567731347365 23.9057731347365 8.731680595790493
22.309226865263504 15.3597731347365 4.277226865263501
10.6537731347365 12.9367731347365 22.1447731347365
7.864773134736501 21.4692268652635 15.3167731347365
31.8797731347365 9.306226865263504 27.433319404209502
26.0372268652635 29.623773134736503 13.057226865263495
14.693226865263505 23.8907731347365 0.8243194042095006
24.964226865263505 26.6802268652635 8.6663194042095
2.9757731347364995 6.685226865263495 16.611226865263497
32.0702268652635 8.516680595790504 12.4267731347365
30.772226865263498 5.5002268652635 2.6183194042094975
20.5927731347365 22.6017731347365 14.937226865263504
15.399319404209503 31.596226865263496 30.613773134736498
1.6956805957905061 25.6053194042095 23.3827731347365
7.552226865263499 6.608680595790503 12.7682268652635
22.393226865263493 13.2457731347365 29.1823194042095
32.040865673682504 16.555865673682504 9.667226865263501
3.4727731347364994 14.2137731347365 5.4177731347365
13.813226865263495 30.110226865263506 17.1287731347365
22.3123194042095 18.423226865263494 2.1317731347365
13.1787731347365 7.9482268652635 28.7727731347365
10.580680595790497 10.3996805957905 27.5983194042095
2.7407731347365 14.9512268652635 5.675226865263504
2.9357731347365004 17.8562268652635 31.815226865263504
31.0547731347365 11.200226865263495 5.545226865263501
15.9037731347365 31.0432268652635 6.3156805957904965
15.454319404209503 23.057226865263495 7.242226865263497
25.6122268652635 26.7833194042095 25.7402268652635
17.5792268652635 29.0803194042095 18.0733194042095
28.6157731347365 2.968226865263496 15.053226865263504
30.163226865263503 19.9257731347365 31.545226865263494
29.663226865263503 20.172773134736502 22.9007731347365
26.167226865263494 10.611680595790503 20.2327731347365
18.9717731347365 2.2746805957904996 20.5687731347365
22.7227731347365 5.6952268652635 16.619319404209502
25.4707731347365 24.4122268652635 15.3327731347365
8.065226865263504 24.539226865263494 7.011773134736501
31.7567731347365 22.0207731347365 5.4676805957904975
14.4577731347365 19.413773134736502 24.8197731347365
22.462226865263496 29.4403194042095 29.1873194042095
20.261226865263502 23.2663194042095 15.5837731347365
3.407226865263503 31.641226865263498 4.3777731347365005
7.235773134736501 5.0486805957905005 7.226680595790498
2.8326805957904924 7.618226865263502 7.032319404209499
25.1497731347365 26.2463194042095 20.9976805957905
23.810226865263495 22.4627731347365 3.5956805957904976
6.308226865263499 2.140134326317508 31.1353194042095
10.891680595790504 7.858680595790503 29.742773134736503
1.5992268652634962 24.190773134736503 21.0217731347365
3.218226865263496 19.331226865263496 24.0006805957905
3.9486805957905062 3.3782268652634997 9.6637731347365
16.1057731347365 3.2377731347365 5.153226865263498
16.6982268652635 16.676226865263494 26.0277731347365
2.8057731347364996 20.586226865263505 10.4482268652635
22.4937731347365 16.8877731347365 12.6892268652635
27.302773134736498 8.170226865263501 18.0312268652635
18.3717731347365 4.3777731347365005 2.0316805957905046
31.831226865263496 28.9833194042095 3.572773134736501
18.845226865263506 5.6257731347365 2.6026805957905026
22.961226865263505 9.700226865263495 24.3322268652635
21.9527731347365 4.057680595790501 15.3797731347365
18.816226865263495 4.312773134736501 3.072226865263495
9.0272268652635 1.8452268652634984 30.8082268652635
28.3666805957905 3.9732268652634986 14.201319404209503
24.424319404209502 4.8722268652634995 12.5062268652635
11.203319404209498 1.8357731347365007 9.293226865263499
4.1777731347364995 6.409773134736501 2.8352268652635004
24.279319404209502 25.2393194042095 20.3847731347365
2.1692268652635036 18.955226865263505 2.1992268652635047
2.4912268652634992 16.5127731347365 19.8827731347365
28.7072268652635 28.052773134736498 4.985680595790498
3.6547731347365 23.5762268652635 19.4812268652635
17.2012268652635 5.258226865263502 9.0417731347365
1.9256805957904959 18.3597731347365 0.8272268652635049
19.5087731347365 20.545226865263494 7.849226865263496
22.2657731347365 7.1392268652635025 28.593319404209502
25.8857731347365 14.4287731347365 5.9092268652634985
29.547773134736502 7.002680595790494 3.4927731347365008
26.754226865263497 11.285226865263503 22.496226865263502
14.633226865263502 25.4752268652635 27.0767731347365
13.3932268652635 12.147226865263498 19.3977731347365
21.413226865263503 17.895226865263503 25.2707731347365
1.8902268652635001 3.3857731347364997 22.5397731347365
10.690226865263504 27.0943194042095 14.405773134736501
8.0182268652635 16.8472268652635 11.4237731347365
29.878773134736498 15.6227731347365 6.653226865263498
12.9542268652635 27.793680595790505 0.6132268652634991
24.363319404209502 6.058226865263499 11.7317731347365
0.4417731347365006 30.747773134736498 3.214226865263498
13.5002268652635 24.3213194042095 3.2166805957904927
22.1783194042095 5.160226865263503 19.7417731347365
17.3367731347365 28.1243194042095 3.9757731347364995
21.2747731347365 27.0957731347365 8.3842268652635
15.6192268652635 6.795226865263501 15.9467731347365
12.897226865263498 2.567680595790506 25.5312268652635
14.845226865263498 18.5852268652635 4.7532268652635
13.3437731347365 12.705226865263505 1.1677731347364997
12.504680595790504 0.2686805957904994 10.711680595790497
11.703773134736501 7.209226865263496 12.727134326317511
16.175226865263504 22.2536805957905 5.322226865263495
5.476773134736501 13.4417731347365 3.3217731347364996
25.4783194042095 1.6502268652634982 10.639680595790495
2.5402268652634987 1.242226865263497 31.102773134736502
0.40177313473649967 19.411226865263494 15.3172268652635
3.792226865263501 29.0577731347365 20.700226865263495
15.0057731347365 30.230773134736502 29.6947731347365
1.2662268652634978 1.4882268652634991 10.5047731347365
30.6953194042095 30.848865673682496 14.8467731347365
16.0887731347365 21.1937731347365 14.729226865263499
12.0317731347365 11.664226865263501 15.610226865263499
16.2337731347365 20.0333194042095 31.5807731347365
13.900226865263498 25.083680595790497 14.304226865263495
11.736226865263497 8.133226865263502 29.6802268652635
6.3787731347365 17.4327731347365 24.1947731347365
18.2072268652635 8.7347731347365 19.8592268652635
25.247226865263507 31.0397731347365 19.583226865263505
15.184773134736501 17.1937731347365 26.555319404209502
20.260226865263498 12.8447731347365 30.9953194042095
0.7402268652635016 21.3297731347365 4.551680595790501
3.5616805957905058 19.5617731347365 30.863226865263506
10.9632268652635 14.5276805957905 5.889773134736501
26.1007731347365 16.5497731347365 30.7943194042095
12.4942268652635 16.7342268652635 14.3902268652635
5.8766805957905035 12.907226865263503 3.252680595790494
6.802226865263499 12.526226865263503 19.891226865263498
6.222226865263501 1.780773134736501 16.8052268652635
20.9497731347365 8.051226865263494 26.8082268652635
20.580226865263505 29.9053194042095 16.575226865263495
26.5967731347365 19.6097731347365 18.6847731347365
30.7357731347365 9.103226865263501 4.427226865263499
22.1622268652635 22.010226865263498 9.7507731347365
12.4392268652635 4.983226865263497 25.230226865263496
8.8077731347365 18.155226865263494 21.6887731347365
30.0552268652635 31.571226865263505 22.0757731347365
3.9137731347365 2.3356805957904925 15.0182268652635
14.729226865263499 16.233680595790503 20.745226865263497
21.224773134736502 23.821865673682495 7.476773134736501
1.2582268652635022 24.1772268652635 30.1643194042095
1.2117731347365002 29.5787731347365 16.4467731347365
3.1836805957905057 13.3787731347365 4.278226865263498
17.7342268652635 31.0213194042095 27.200226865263495
11.626680595790504 27.470680595790498 10.955226865263505
18.3827731347365 10.0347731347365 9.294226865263504
18.657226865263503 3.3637731347364994 21.253226865263507
28.1213194042095 32.0363194042095 1.2857731347365
6.343226865263496 6.4972268652634995 27.3323194042095
26.401319404209502 14.105226865263496 4.0967731347365
11.6017731347365 8.0582268652635 12.2697731347365
25.2363194042095 3.1887731347365005 28.7867731347365
2.1126805957904935 9.973226865263499 13.0306805957905
28.4697731347365 4.0982268652634986 23.780226865263494
14.9422268652635 25.919226865263504 26.7872268652635
30.476226865263506 28.8226805957905 26.263226865263498
29.827226865263505 6.2742268652635005 6.5157731347365
15.108226865263497 16.1532268652635 25.2252268652635
19.6862268652635 21.4157731347365 19.330226865263505
2.0736805957905062 17.3353194042095 6.8552268652634964
1.8932268652635003 24.450226865263495 6.372680595790499
26.9332268652635 18.6297731347365 31.2043194042095
27.803680595790496 19.003226865263507 22.52968059579051
6.4606805957904925 31.071226865263505 8.717226865263498
5.114680595790503 26.1857731347365 24.547226865263504
23.105773134736502 0.18222686526349463 7.741680595790498
27.1547731347365 26.8292268652635 1.7837731347365011
3.611680595790503 20.9453194042095 19.52368059579051
9.892680595790495 8.319680595790501 23.9362268652635
16.271226865263493 14.6597731347365 22.750773134736498
17.635226865263498 25.6587731347365 23.608226865263497
13.115680595790494 24.8477731347365 19.212680595790502
23.8333194042095 26.443226865263505 29.6083194042095
12.852226865263496 20.7903194042095 19.6807731347365
15.607226865263499 21.606865673682506 20.4647731347365
29.5437731347365 13.8977731347365 15.8367731347365
15.7682268652635 30.3367731347365 9.9572268652635
23.717680595790497 6.1777731347364995 1.5622268652635043
25.565226865263504 8.645773134736501 13.278680595790505
7.8552268652634964 14.459226865263496 8.3687731347365
12.7407731347365 17.9752268652635 10.2397731347365
5.433226865263499 26.0757731347365 10.56286567368251
31.3277731347365 18.0483194042095 15.0387731347365
22.2657731347365 16.126226865263497 26.126773134736503
7.5371343263175135 31.4493194042095 24.3367731347365
29.8503194042095 21.5942268652635 12.718319404209499
29.837680595790502 31.2827731347365 32.1517731347365
25.2312268652635 23.9572268652635 14.720680595790498
5.959226865263496 27.8687731347365 19.52968059579051
8.3427731347365 6.708226865263498 26.1652268652635
22.7303194042095 14.731226865263501 11.6162268652635
0.9292268652634945 1.0092268652635 16.7192268652635
2.4446805957905013 9.314319404209503 21.2803194042095
20.262226865263493 22.186319404209502 19.9297731347365
6.600226865263501 20.144226865263498 2.405773134736501
6.9427731347365 26.367226865263497 13.741773134736501
19.7437731347365 10.7597731347365 5.3842268652635
16.708680595790497 23.516226865263498 18.7992268652635
17.919773134736502 4.400226865263498 30.299319404209502
8.0477731347365 7.037773134736501 5.9313194042095
31.5257731347365 31.135226865263498 28.244773134736498
31.6886805957905 26.5053194042095 24.247226865263507
12.586226865263498 19.6922268652635 26.2807731347365
29.055319404209502 28.207680595790507 9.285226865263503
15.847319404209504 5.136680595790494 0.37622686526349725
3.3426805957904975 24.7583194042095 23.239226865263497
20.1717731347365 27.0113194042095 28.5912268652635
1.9393194042095026 0.4472268652634952 1.3437731347364998
26.1892268652635 28.5127731347365 5.533773134736501
16.4127731347365 16.1092268652635 6.962226865263496
8.829680595790492 30.230226865263496 23.8532268652635
17.2447731347365 11.563226865263495 13.2287731347365
2.1567731347365005 15.836226865263498 31.628319404209503
13.1237731347365 28.0127731347365 8.6437731347365
25.8382268652635 9.831226865263496 28.5607731347365
14.922226865263504 1.1692268652635036 4.7842268652634985
7.2277731347365 5.893680595790499 5.874680595790494
29.440773134736503 0.10122686526349867 22.87768059579051
23.2217731347365 16.8063194042095 2.709680595790502
20.0343194042095 26.434773134736503 4.134680595790499
6.221680595790502 13.065226865263504 1.2172268652634983
21.600680595790507 22.354226865263506 30.413773134736502
21.8247731347365 15.672226865263504 21.2427731347365
16.343319404209502 21.698680595790506 6.627226865263502
25.8687731347365 20.6712268652635 28.300226865263504
4.7042268652635 25.657226865263503 4.833680595790497
20.4237731347365 15.726226865263499 15.0447731347365
13.0827731347365 10.258226865263502 2.7927731347364997
7.754680595790504 1.8882268652634977 17.5777731347365
9.539226865263501 14.9107731347365 6.449680595790497
20.779226865263503 22.523226865263503 18.3117731347365
4.8667731347364995 23.566226865263495 3.0282268652634983
31.241773134736498 15.668773134736501 21.3767731347365
19.0017731347365 30.6437731347365 29.8827731347365
24.523226865263503 7.764773134736501 6.7896805957905
8.820680595790506 14.885226865263498 26.695865673682505
27.089226865263505 23.4547731347365 9.699226865263505
24.5137731347365 26.0673194042095 8.3932268652635
21.0317731347365 19.5567731347365 21.8017731347365
3.392773134736501 16.9113194042095 18.0037731347365
1.6716805957905052 26.0667731347365 13.7712268652635
8.8692268652635 14.2472268652635 4.7727731347365
29.4607731347365 24.4003194042095 19.093226865263496
26.753226865263507 14.876226865263497 28.788773134736502
24.908226865263494 28.3837731347365 24.869773134736498
3.390134326317508 25.0397731347365 23.812226865263504
26.7647731347365 16.919680595790496 16.5457731347365
29.3863194042095 8.308773134736501 1.0647731347365
30.9177731347365 25.806226865263504 20.327226865263505
15.2237731347365 5.997680595790499 7.842319404209501
14.9767731347365 25.1437731347365 7.3457731347365005
6.609226865263501 24.635226865263498 1.056226865263504
17.5647731347365 14.188226865263495 2.9116805957905
30.2313194042095 10.230226865263496 10.0407731347365
17.7997731347365 25.3217731347365 10.9692268652635
22.6797731347365 23.632680595790504 3.1702268652635013
22.6007731347365 7.684226865263504 26.773226865263503
23.7687731347365 6.3966805957904995 8.358680595790503
27.154319404209502 17.0937731347365 15.044226865263504
3.3937731347365006 25.814319404209503 7.0122268652635
9.944319404209498 24.5723194042095 20.5987731347365
14.7716805957905 17.352226865263496 9.294226865263504
31.608226865263497 13.4747731347365 31.800773134736502
31.307226865263495 27.4173194042095 21.980773134736502
23.766226865263498 4.334226865263496 17.3457731347365
28.3567731347365 30.3797731347365 24.6487731347365
20.2747731347365 7.285680595790495 11.8837731347365
5.1167731347364995 23.6077731347365 11.718680595790502
20.089226865263505 31.2432268652635 29.5677731347365
27.3167731347365 24.3857731347365 32.1777731347365
30.369226865263506 12.070680595790506 0.4792268652634988
5.3437731347365 29.6507731347365 5.8842268652635
6.8757731347365 7.060226865263495 12.319226865263495
25.3437731347365 27.8877731347365 25.328319404209502
21.9697731347365 0.5522268652634992 8.502226865263502
18.369226865263506 8.257226865263497 8.0092268652635
14.605865673682501 26.3453194042095 15.161226865263501
7.453680595790502 23.125773134736498 27.889226865263502
7.9307731347365 0.42068059579050043 22.980226865263496
12.929226865263495 17.968680595790502 9.113773134736501
16.9637731347365 31.3107731347365 30.474773134736502
18.7987731347365 12.111226865263497 30.3153194042095
5.8812268652635 31.7347731347365 16.8147731347365
10.602226865263496 6.5187731347365006 0.6432268652635003
26.0677731347365 12.837773134736501 6.374226865263502
9.9692268652635 22.9317731347365 20.470226865263506
18.6267731347365 9.764226865263502 31.513226865263498
1.1736805957905005 20.0743194042095 4.3842268652635
1.4792268652634988 30.5543194042095 1.7867731347364995
23.2807731347365 28.5667731347365 10.931680595790496
29.9033194042095 3.0617731347365 27.997319404209502
9.5167731347365 12.864226865263497 3.296226865263499
29.5027731347365 6.4542268652635 7.281319404209501
8.899773134736499 29.5547731347365 23.145226865263503
31.3103194042095 15.5427731347365 9.784226865263498
5.611226865263497 24.6742268652635 25.4787731347365
28.9967731347365 11.922226865263504 18.6017731347365
10.9082268652635 8.045226865263501 31.309773134736503
27.212226865263496 26.9797731347365 25.061773134736498
12.7297731347365 17.268226865263493 7.700773134736501
3.5812268652634955 21.2973194042095 0.09122686526350066
26.1067731347365 10.9087731347365 25.9152268652635
23.971319404209503 13.171773134736501 10.304226865263495
1.1737731347365 8.281226865263498 22.883226865263502
15.9277731347365 18.080226865263505 1.6917731347365006
6.806226865263504 0.2603194042095005 10.766226865263498
11.446226865263505 23.7817731347365 28.5087731347365
7.392226865263503 9.105680595790503 24.6437731347365
14.557226865263495 25.2267731347365 2.2787731347365003
5.901226865263503 6.9327731347365 10.557226865263495
18.883226865263502 28.6613194042095 9.046226865263499
19.954680595790506 3.1993194042095006 27.8777731347365
11.7177731347365 9.3597731347365 10.691226865263495
14.103319404209504 3.3752268652634996 5.425226865263504
17.5167731347365 9.8437731347365 17.575319404209502
26.4477731347365 21.2997731347365 23.0787731347365
30.638680595790504 25.5757731347365 25.620773134736503
11.7667731347365 23.394226865263498 27.6873194042095
16.0762268652635 28.8437731347365 17.004226865263497
29.809773134736503 22.8747731347365 7.0007731347365
31.3203194042095 0.6027731347365002 26.5857731347365
14.9287731347365 3.1492268652635005 26.2167731347365
14.275226865263498 5.621226865263502 8.790226865263499
28.994226865263506 16.336226865263505 2.262680595790499
28.4543194042095 26.2577731347365 18.2926805957905
23.325226865263495 6.1432268652635 18.864226865263497
15.940226865263504 3.7477731347364998 17.982226865263506
29.3913194042095 26.869319404209502 18.6952268652635
9.024773134736499 3.4427731347365 5.2592268652635
11.812680595790496 23.439773134736498 26.7743194042095
12.4572268652635 3.8356805957904925 20.9023194042095
21.8592268652635 14.477226865263496 5.2376805957904935
23.911226865263494 28.7162268652635 11.9493194042095
23.1007731347365 14.0047731347365 22.6237731347365
23.099773134736502 17.3202268652635 2.120773134736501
22.7087731347365 25.9373194042095 14.418226865263499
15.0577731347365 30.935226865263495 8.525226865263498
27.061773134736498 25.727226865263496 24.4207731347365
4.7062268652634955 5.898226865263503 3.1287731347365
31.4487731347365 14.7607731347365 8.9177731347365
11.267226865263503 13.049226865263499 23.166773134736502
2.822226865263495 3.3356805957904925 21.4403194042095
7.804680595790501 21.450226865263495 13.6203194042095
17.669773134736502 27.206226865263496 4.3962268652635
3.1126805957904935 19.824226865263505 18.6957731347365
29.3927731347365 2.7347731347365 16.2967731347365
14.6177731347365 6.426680595790501 18.3423194042095
31.302773134736498 16.360226865263506 7.877134326317503
3.6152268652635016 1.3122268652635043 10.2883194042095
23.3472268652635 25.155226865263494 8.7382268652635
20.8117731347365 15.7407731347365 19.3353194042095
8.2907731347365 8.4542268652635 23.5822268652635
4.728226865263501 2.286319404209504 15.666226865263503
15.4302268652635 10.5507731347365 29.3367731347365
21.986773134736502 15.3262268652635 26.0803194042095
8.776773134736501 2.2342268652635013 8.8632268652635
8.8016805957905 31.9602268652635 28.4603194042095
21.9632268652635 2.07513432631751 8.857226865263499
15.143319404209503 2.867226865263497 17.3547731347365
18.888226865263498 0.20577313473649994 3.0343194042095014
8.7883194042095 18.0157731347365 29.0213194042095
22.303773134736502 25.4877731347365 23.4873194042095
28.2907731347365 2.5206805957904947 7.154226865263503
17.772226865263498 24.9302268652635 11.3107731347365
28.7357731347365 16.517319404209502 23.2163194042095
5.232226865263499 27.247773134736498 19.251226865263497
11.922226865263504 13.240226865263502 0.13677313473650088
26.5407731347365 10.962773134736501 19.7342268652635
30.9647731347365 10.4677731347365 4.596226865263496
24.068226865263505 6.4757731347364995 31.6477731347365
29.9417731347365 16.1577731347365 2.7107731347365007
20.914226865263494 20.830226865263505 19.1917731347365
20.2647731347365 11.206773134736501 14.2697731347365
22.5217731347365 15.4467731347365 25.2327731347365
26.1403194042095 20.553226865263504 27.333226865263505
14.053226865263504 9.1617731347365 5.332773134736501
24.1417731347365 7.3142268652635 11.3197731347365
3.033226865263501 24.8957731347365 8.799226865263499
15.1247731347365 25.3377731347365 6.488226865263499
20.8367731347365 13.8472268652635 20.300226865263504
4.806226865263504 28.5303194042095 29.488773134736498
12.871226865263502 5.2232268652634986 6.033773134736501
15.973226865263506 16.5282268652635 14.7776805957905
1.7607731347364997 4.344226865263501 31.814773134736498
25.363773134736498 3.6736805957905005 31.4517731347365
30.863226865263506 2.2386805957904983 16.5763194042095
9.0077731347365 31.8877731347365 18.516226865263498
27.922773134736502 24.824865673682496 9.365226865263502
2.956680595790502 4.4422268652635 21.483680595790503
9.839226865263498 6.397226865263498 25.358773134736502
11.077680595790497 0.9622268652634958 29.7047731347365
22.2133194042095 1.5146805957904945 8.2637731347365
13.702226865263505 5.566773134736501 7.8896805957904945
27.700319404209502 9.0182268652635 25.800773134736502
26.030226865263494 15.513226865263498 17.327226865263505
30.77368059579051 9.7162268652635 3.3352268652635004
15.812773134736501 7.6862268652634995 15.790226865263499
18.6092268652635 9.5972268652635 11.419226865263504
19.6152268652635 21.1247731347365 18.2557731347365
14.5822268652635 24.869773134736498 20.9737731347365
20.8682268652635 31.5607731347365 31.0707731347365
7.851680595790498 8.6597731347365 0.8567731347364997
26.8063194042095 24.141226865263498 16.858226865263497
23.719134326317516 6.726226865263499 0.3673194042094998
25.224226865263496 11.1147731347365 9.4972268652635
21.459226865263496 19.667226865263494 29.2067731347365
11.5677731347365 1.3126805957904963 14.5672268652635
16.137226865263493 17.352226865263496 4.769226865263498
5.2537731347365 13.002226865263502 24.9537731347365
31.2453194042095 12.6922268652635 15.1443194042095
3.6417731347365 24.150226865263498 4.0547731347365
20.8547731347365 20.374680595790508 2.5182268652635003
23.9537731347365 14.155773134736501 20.8333194042095
12.5852268652635 0.8366805957904973 11.2187731347365
30.832680595790507 27.452226865263505 24.5947731347365
11.2577731347365 19.095226865263506 2.5347731347365006
21.2053194042095 9.3767731347365 5.3226805957905015
13.2077731347365 19.7992268652635 32.1157731347365
8.6492268652635 14.7227731347365 13.862226865263501
13.3697731347365 8.5546805957905 5.407226865263503
31.398319404209502 6.9877731347365 12.853680595790493
0.44222686526349975 27.613226865263506 10.2587731347365
4.5877731347365 19.7467731347365 26.6337731347365
27.507226865263497 1.944226865263495 8.2087731347365
27.5427731347365 17.1417731347365 29.690773134736503
15.611226865263497 31.699226865263505 0.8792268652634974
8.934226865263504 20.8117731347365 3.364226865263497
18.0617731347365 28.3607731347365 2.306226865263504
11.909226865263498 29.123773134736503 15.110226865263499
12.758226865263502 18.30713432631751 31.747773134736498
30.8987731347365 12.5197731347365 26.179226865263495
29.6753194042095 1.9666805957904927 15.0577731347365
29.8483194042095 31.2067731347365 15.3017731347365
9.955226865263505 8.7597731347365 17.1652268652635
27.904319404209502 14.541226865263503 4.591226865263501
24.1747731347365 5.941226865263495 0.5742268652635047
10.751134326317512 18.5307731347365 27.005226865263502
27.733226865263497 8.995680595790503 25.223226865263506
1.888680595790504 11.101226865263499 12.517226865263503
8.9457731347365 13.1357731347365 23.328319404209502
27.8413194042095 9.630226865263502 25.2557731347365
26.7847731347365 2.688226865263495 27.9452268652635
20.080226865263505 26.9343194042095 29.4417731347365
21.727226865263496 10.8817731347365 16.4967731347365
11.7222268652635 12.485680595790498 24.6622268652635
6.7916805957904955 18.8307731347365 5.0547731347365
1.6567731347365005 8.107773134736501 22.587226865263496
31.976226865263506 30.0683194042095 15.1937731347365
23.9077731347365 29.2347731347365 28.261226865263502
24.4236805957905 5.081680595790502 30.6286805957905
31.2453194042095 16.1376805957905 21.575319404209502
31.7347731347365 19.2097731347365 29.4627731347365
0.3092268652635042 30.3317731347365 4.4717731347365
29.003773134736498 25.8513194042095 25.6677731347365
10.0057731347365 3.870226865263497 6.4207731347365
26.4773194042095 23.174865673682504 9.842226865263498
14.010680595790504 26.4812268652635 16.2222268652635
19.4296805957905 21.296680595790505 31.723226865263506
7.3232268652635 11.4572268652635 8.8807731347365
27.721226865263496 22.631226865263493 16.75568059579051
10.8782268652635 9.1337731347365 28.5603194042095
3.0496805957905053 11.8887731347365 4.855680595790503
20.272226865263498 26.5877731347365 3.2827731347365
21.2517731347365 31.3997731347365 4.9327731347365
22.1627731347365 6.445680595790506 27.8317731347365
21.9517731347365 0.14877313473649956 15.4362268652635
17.1917731347365 16.320773134736502 27.4757731347365
5.039226865263501 17.938226865263495 6.686319404209502
30.5183194042095 6.2757731347365 2.090680595790502
18.684226865263504 16.874226865263502 29.9903194042095
8.491680595790498 21.769226865263498 15.3217731347365
8.3917731347365 1.6696805957904957 3.1832268652634994
16.385680595790504 29.937773134736503 6.483226865263497
0.21922686526350077 26.7547731347365 13.3807731347365
31.5943194042095 1.421773134736501 1.2242268652634962
16.2162268652635 10.474226865263496 31.686773134736498
17.6053194042095 23.366226865263506 11.792319404209504
6.090680595790502 18.3227731347365 24.5227731347365
10.9127731347365 28.380226865263502 13.9607731347365
27.7927731347365 17.1257731347365 15.684226865263504
9.7717731347365 10.202226865263505 11.346226865263496
0.4207731347364998 27.5582268652635 8.5503194042095
21.3993194042095 25.092226865263505 14.057319404209498
3.4346805957904962 12.5037731347365 6.127226865263502
9.235226865263499 27.236226865263497 16.735680595790498
25.355226865263496 21.0762268652635 30.0593194042095
29.3957731347365 11.1377731347365 18.4267731347365
21.375226865263507 22.7227731347365 30.8682268652635
11.690226865263504 21.5267731347365 18.937680595790496
0.40668059579050464 15.974226865263496 9.0672268652635
5.521773134736501 18.2433194042095 24.537680595790505
11.0272268652635 5.6932268652635045 0.047226865263503726
20.382226865263497 31.4813194042095 31.7987731347365
7.3297731347365005 4.6157731347365 27.232680595790498
16.9722268652635 21.9297731347365 23.7252268652635
18.7967731347365 30.285773134736502 17.829680595790506
28.0197731347365 23.1153194042095 18.4677731347365
3.2812268652634984 23.2717731347365 8.9557731347365
28.273319404209502 15.4482268652635 7.4292268652634945
8.7077731347365 0.2936805957905051 29.2113194042095
8.7837731347365 1.596226865263496 4.300773134736501
0.4807731347365003 25.7162268652635 24.6077731347365
13.5302268652635 4.668773134736501 4.3397731347365
31.680773134736498 18.5668656736825 17.1817731347365
32.0173194042095 22.8167731347365 8.7897731347365
23.0822268652635 16.202226865263505 12.799680595790505
14.3857731347365 5.948680595790506 5.046680595790505
28.9572268652635 21.435226865263495 13.488680595790498
23.0728656736825 9.044680595790496 12.9517731347365
26.026226865263503 15.397226865263498 16.9542268652635
18.4403194042095 29.864226865263497 16.8592268652635
31.2753194042095 3.4817731347364997 8.96813432631751
1.3992268652635005 25.713865673682506 29.584226865263496
30.4607731347365 8.415226865263499 6.4207731347365
17.378226865263507 29.0297731347365 4.293680595790505
23.489226865263497 14.697226865263495 11.697226865263495
25.9477731347365 11.7107731347365 22.401226865263503
6.795226865263501 14.0457731347365 31.770319404209502
18.3472268652635 21.771226865263493 23.0163194042095
5.373773134736501 18.577226865263505 4.558680595790506
15.6293194042095 30.0953194042095 29.3197731347365
2.556226865263504 0.4152268652634987 21.6263194042095
31.739773134736502 19.506226865263493 24.1023194042095
5.2842268652634985 23.0483194042095 19.8717731347365
5.160226865263503 20.102773134736502 17.5366805957905
29.8257731347365 12.506319404209503 14.3447731347365
20.7587731347365 27.806226865263504 28.898226865263503
28.0757731347365 12.2497731347365 20.952226865263505
2.7102268652635004 2.1432268652635003 1.228226865263501
2.3052268652634993 28.199226865263505 30.0762268652635
30.2197731347365 22.190680595790496 6.722226865263501
10.1522268652635 31.199680595790497 0.19322686526350452
25.355226865263496 21.5317731347365 3.3026805957905054
11.9437731347365 4.229773134736501 26.8153194042095
29.473226865263506 19.122226865263507 32.037680595790505
17.8652268652635 0.19522686526349986 15.0522268652635
7.6257731347365 13.291226865263503 16.045226865263494
20.777226865263493 25.1152268652635 3.7447731347364996
18.232226865263506 13.471226865263496 3.6706805957905004
9.464319404209501 29.0487731347365 22.8183194042095
28.869773134736498 12.412226865263499 21.8137731347365
28.3823194042095 21.417226865263494 12.0546805957905
21.6587731347365 21.312226865263504 13.081773134736501
22.303773134736502 11.2926805957905 15.392773134736501
25.6467731347365 12.960319404209503 9.9057731347365
6.5426805957905 27.437773134736503 29.968226865263496
12.551319404209497 6.9557731347365 4.3537731347365
27.5253194042095 9.717226865263498 29.186773134736498
26.839226865263505 18.6742268652635 29.8467731347365
7.623226865263497 13.8977731347365 12.2427731347365
14.3167731347365 29.0887731347365 8.842226865263498
23.9917731347365 4.4476805957905015 31.061319404209502
11.826680595790492 20.1437731347365 3.157226865263503
2.6607731347365 31.6122268652635 4.322226865263495
20.2457731347365 20.6943194042095 1.8802268652635021
7.4117731347364995 8.5642268652635 27.116226865263506
30.925226865263504 3.8296805957904922 8.014226865263502
12.5937731347365 25.5462268652635 4.129226865263497
12.302773134736501 18.5617731347365 1.0746805957904968
27.348226865263506 9.995773134736499 17.0867731347365
2.1872268652635043 0.789226865263501 9.191680595790501
15.6387731347365 30.6377731347365 6.656680595790505
19.2506805957905 22.6347731347365 0.7943194042094994
7.647226865263498 24.920226865263494 19.4397731347365
2.7417731347364995 32.0427731347365 15.3016805957905
14.878319404209503 30.595680595790498 6.6322268652634975
3.056680595790496 1.7667731347364999 9.054226865263495
0.16722686526350117 7.0937731347365 29.069226865263495
24.616773134736498 32.0817731347365 1.9926805957905032
23.5096805957905 23.9067731347365 24.6577731347365
8.4297731347365 24.849226865263496 21.029226865263503
21.3257731347365 14.3147731347365 6.251226865263497
28.357319404209502 12.5157731347365 19.8502268652635
13.2597731347365 8.5762268652635 28.3957731347365
26.928773134736502 12.696226865263505 5.0287731347365
18.349226865263496 19.448680595790506 6.533773134736501
8.049680595790505 5.895773134736499 20.297226865263504
8.0997731347365 10.4167731347365 4.733226865263497
13.484226865263501 13.295226865263501 31.486226865263497
18.6767731347365 22.658226865263494 19.1033194042095
6.8962268652635 26.3022268652635 20.875319404209502
11.0732268652635 4.288319404209499 14.955226865263505
8.1767731347365 12.5272268652635 8.886226865263502
8.4287731347365 6.127680595790494 20.9347731347365
19.8407731347365 5.6277731347365005 5.127226865263502
9.362226865263501 0.8782268652634997 2.8992268652635005
20.6827731347365 4.8727731347365 4.644226865263498
18.908226865263494 5.5926805957904975 25.473226865263506
20.7387731347365 27.6307731347365 18.1532268652635
29.243680595790508 3.5032268652634997 23.227773134736502
14.027773134736501 27.174319404209502 30.623773134736503
8.651226865263503 23.1767731347365 9.281680595790505
29.8423194042095 25.9527731347365 25.899226865263493
15.4572268652635 11.270226865263503 10.8917731347365
28.4473194042095 18.4737731347365 30.410773134736502
15.331773134736501 18.6182268652635 3.0992268652634962
25.3203194042095 28.779319404209502 28.7577731347365
21.474226865263496 10.475226865263501 17.3232268652635
5.964226865263498 23.8077731347365 11.8397731347365
22.140226865263493 8.0707731347365 12.181680595790496
4.203226865263495 11.296773134736501 30.1213194042095
15.962319404209499 11.153680595790505 12.4527731347365
20.524226865263493 8.7806805957905 11.124226865263502
4.0682268652635045 1.478226865263501 15.030319404209504
24.389226865263502 23.4842268652635 19.3673194042095
1.8407731347364997 30.8897731347365 21.4487731347365
28.7713194042095 3.9337731347364997 6.2477731347365
26.9907731347365 11.706319404209498 13.578773134736501
17.913226865263503 31.054226865263495 16.189319404209503
8.4867731347365 11.247680595790499 5.3232268652635
24.1063194042095 2.6902268652635044 9.2577731347365
23.5877731347365 17.010226865263498 14.459773134736501
30.3833194042095 27.884226865263493 7.2447731347365
7.717226865263498 17.7343194042095 1.228226865263501
12.059226865263504 6.190226865263504 13.5882268652635
24.489865673682502 27.340226865263496 3.8711343263175024
14.8237731347365 1.992226865263497 17.524226865263493
15.179226865263495 23.108773134736502 6.6327731347364995
2.6702268652635013 6.523680595790495 18.8777731347365
30.7293194042095 2.8852268652634976 6.801226865263494
27.4327731347365 29.8123194042095 12.7437731347365
26.3277731347365 12.559773134736501 4.6447731347365
19.510226865263498 17.405226865263494 11.8112268652635
21.16668059579051 23.5307731347365 3.542226865263501
1.4332268652634994 1.8812268652634998 1.9222268652635037
2.367226865263497 9.270773134736501 14.9627731347365
29.3167731347365 15.465226865263496 4.9337731347365
6.142226865263503 3.026680595790495 15.2742268652635
16.610226865263506 10.3202268652635 23.9092268652635
25.686773134736498 9.8797731347365 19.8532268652635
9.2027731347365 20.8563194042095 14.8377731347365
18.872319404209502 25.8207731347365 11.0937731347365
9.302319404209502 11.9487731347365 5.7797731347365
23.0497731347365 6.2257731347364995 18.2007731347365
31.473226865263506 7.0877731347365 27.741319404209502
31.8052268652635 20.501680595790504 15.0302268652635
24.9877731347365 18.672773134736502 12.948680595790506
6.526680595790495 14.680319404209502 13.3397731347365
20.007226865263497 8.412226865263499 19.9367731347365
3.392773134736501 6.2072268652635 4.3497731347365
1.6577731347365 18.453226865263495 14.237226865263501
22.5337731347365 31.5023194042095 1.2612268652635024
7.6556805957905 10.243226865263502 8.4767731347365
1.9402268652635044 9.711680595790497 21.858226865263497
15.763680595790504 1.1167731347364995 11.868226865263502
20.37768059579051 2.1187731347365 6.736226865263497
10.3277731347365 23.2573194042095 6.8202268652635
29.194226865263495 15.496226865263502 15.5957731347365
13.5882268652635 11.1676805957905 2.2916805957904955
16.998680595790503 29.300226865263504 23.5552268652635
17.907226865263503 23.4392268652635 1.703773134736501
24.6737731347365 17.297226865263504 13.1477731347365
24.422773134736502 23.361226865263497 24.035226865263503
1.3562268652635012 1.0572268652634946 21.4637731347365
8.7162268652635 4.162680595790505 4.777773134736501
25.8583194042095 13.2622268652635 2.779226865263503
26.9153194042095 22.712226865263496 22.9332268652635
4.7467731347365 6.758226865263502 12.233226865263497
28.5057731347365 11.244680595790499 17.959680595790502
22.221226865263496 4.415226865263499 16.681226865263504
26.396226865263493 17.9583194042095 31.190773134736503
2.7976805957904958 25.9242268652635 7.6466805957904995
25.1717731347365 11.7267731347365 10.6492268652635
8.6647731347365 25.7437731347365 15.7717731347365
10.996319404209498 15.0187731347365 4.732680595790498
31.7677731347365 13.5287731347365 27.102226865263496
26.5713194042095 15.111680595790503 26.473226865263506
31.3232268652635 3.3622268652635015 9.6372268652635
11.912226865263499 11.5477731347365 32.0762268652635
18.591680595790507 21.0657731347365 23.081226865263496
13.4972268652635 11.852226865263496 17.769226865263498
0.8212268652635046 27.9687731347365 15.841319404209504
21.5533194042095 20.605773134736502 29.3937731347365
4.9991343263175025 20.7897731347365 31.5773194042095
14.117226865263497 24.6317731347365 14.955226865263505
13.8777731347365 2.3212268652635046 25.4737731347365
30.7627731347365 7.442319404209503 22.495865673682502
2.6097731347365 25.2282268652635 5.167319404209504
15.8232268652635 21.693226865263505 22.5017731347365
10.3292268652635 8.188680595790501 21.458226865263505
15.283319404209504 28.1627731347365 22.6227731347365
25.9332268652635 30.9028656736825 18.944226865263495
25.0457731347365 6.481226865263501 1.2272268652634963
2.5956805957904976 12.3147731347365 5.385680595790504
30.8777731347365 17.7432268652635 15.6007731347365
16.246226865263502 29.958226865263505 22.496226865263502
10.8172268652635 29.2347731347365 2.1517731347364997
21.0197731347365 12.682226865263495 28.568226865263505
16.7372268652635 27.986226865263497 16.119319404209502
5.972226865263501 28.2137731347365 30.555773134736498
25.507226865263497 12.549773134736501 6.513680595790504
14.286226865263501 18.358773134736502 10.709226865263496
5.8907731347365 14.796226865263499 1.6706805957905004
12.0127731347365 25.1443194042095 0.37222686526349946
0.37922686526349736 1.0797731347365005 14.857226865263499
2.084680595790502 21.1707731347365 11.4077731347365
15.5577731347365 8.614226865263497 23.9443194042095
1.2002268652634953 9.609680595790493 20.649226865263493
20.6397731347365 15.0477731347365 14.3057731347365
6.353226865263501 1.1266805957905035 23.988226865263506
16.1037731347365 29.9028656736825 8.6477731347365
5.8482268652634986 18.5977731347365 3.381680595790499
26.5337731347365 11.886680595790494 19.37768059579051
25.757680595790504 10.369773134736501 22.803226865263504
21.4467731347365 7.9587731347365 12.038680595790495
1.2412268652634992 31.4843194042095 3.3553194042094994
24.305773134736498 23.128319404209503 24.936773134736498
1.6626805957905049 31.736773134736502 1.9797731347365009
12.150226865263498 13.229226865263499 25.001773134736503
27.6547731347365 16.9517731347365 21.5017731347365
8.6952268652635 26.3997731347365 23.7697731347365
28.3093194042095 0.685680595790501 32.0037731347365
18.1447731347365 22.1517731347365 7.4933194042094975
9.842226865263498 21.723226865263506 23.128226865263507
19.8937731347365 20.1843194042095 22.730773134736502
22.7157731347365 3.117226865263497 16.551226865263494
31.1933194042095 12.438319404209498 26.369226865263506
21.202680595790497 12.028680595790505 15.7607731347365
0.4326805957905009 0.8202268652634999 27.91386567368251
18.570134326317515 31.2587731347365 15.081319404209498
28.3993194042095 20.7263194042095 10.452226865263505
7.354226865263499 30.2282268652635 11.545226865263501
16.127319404209498 24.887226865263493 32.0887731347365
13.470680595790498 11.596226865263496 26.9523194042095
0.8437731347364998 29.9177731347365 10.987226865263501
29.849773134736502 0.02977313473650156 14.1353194042095
3.4062268652634984 12.238773134736501 9.788680595790495
23.2287731347365 14.602226865263496 10.824680595790497
0.560680595790501 20.1873194042095 2.1292268652634974
16.605226865263496 14.6287731347365 25.7547731347365
17.7597731347365 19.144226865263498 12.334773134736501
5.3722268652634995 15.5447731347365 17.5733194042095
23.455680595790497 14.459680595790502 20.235226865263506
6.0227731347365 32.1007731347365 28.1343194042095
31.449226865263505 20.819226865263495 8.367226865263497
27.482226865263506 2.3952268652635027 15.066226865263495
6.1536805957905045 25.8523194042095 10.857680595790498
4.446680595790497 5.851226865263499 1.0332268652635008
27.4507731347365 6.2786805957905045 16.761226865263502
8.5882268652635 10.458680595790497 5.774773134736501
10.668226865263499 31.5937731347365 28.733773134736502
17.4947731347365 20.7567731347365 23.0423194042095
25.0503194042095 0.2952268652635013 9.5332268652635
15.795226865263501 24.1977731347365 19.9987731347365
30.283226865263494 26.247226865263507 20.758226865263502
17.900680595790504 8.997773134736502 20.5307731347365
4.986226865263497 31.730773134736502 9.9717731347365
20.6443194042095 12.422226865263504 5.575226865263495
25.877226865263502 20.2077731347365 6.7047731347365005
16.9617731347365 3.516226865263498 13.8277731347365
24.1367731347365 25.1973194042095 19.2133194042095
5.9107731347365 13.157226865263503 9.0852268652635
10.7957731347365 28.0403194042095 2.1762268652634944
9.866773134736501 11.330226865263505 27.699226865263505
15.074226865263505 10.0257731347365 29.4857731347365
23.2997731347365 18.7603194042095 2.8226805957905015
30.5187731347365 16.9693194042095 8.164226865263501
26.2873194042095 20.124680595790508 19.083226865263505
2.536226865263501 0.725226865263501 21.1002268652635
23.6832268652635 4.227226865263496 5.371680595790494
19.8592268652635 17.2477731347365 30.616773134736498
11.918773134736501 20.788226865263503 18.902226865263493
16.8393194042095 32.0997731347365 31.1347731347365
28.244773134736498 25.256226865263493 25.797226865263504
13.0267731347365 12.0107731347365 7.240226865263502
19.0067731347365 17.9537731347365 19.3763194042095
8.581773134736501 7.484680595790493 5.243226865263502
1.414226865263501 15.1462268652635 7.979680595790498
15.0822268652635 5.741226865263499 6.940226865263504
8.090226865263496 15.796773134736501 29.2283194042095
27.114226865263497 10.882680595790504 20.1127731347365
20.5947731347365 15.454319404209503 5.975226865263501
1.560680595790501 0.3012268652634944 20.7217731347365
23.6413194042095 19.548226865263494 12.118226865263502
4.326319404209503 3.729226865263499 1.638680595790504
1.7502268652634996 19.9553194042095 13.6507731347365
26.0822268652635 24.720226865263506 9.1522268652635
3.037680595790505 12.648226865263503 10.093226865263496
20.406680595790505 19.5473194042095 31.5057731347365
21.7192268652635 8.4127731347365 25.736226865263497
2.0517731347365 24.611226865263497 4.438680595790501
6.560226865263495 18.0267731347365 9.0852268652635
13.661226865263501 17.763680595790504 1.2127731347364996
5.023226865263503 31.786226865263494 27.6433194042095
16.7367731347365 0.252226865263502 23.9527731347365
28.6922268652635 25.654226865263503 19.2317731347365
2.978134326317516 18.855226865263496 24.8267731347365
10.023680595790495 8.877319404209498 28.3592268652635
12.9707731347365 28.985226865263506 16.119226865263506
23.035773134736502 3.6532268652634983 22.980226865263496
9.6982268652635 17.352773134736502 13.200226865263495
15.311680595790506 31.3168656736825 4.2453194042095
27.427680595790505 15.299226865263499 24.8347731347365
31.9997731347365 31.738226865263506 15.049680595790505
24.687226865263504 25.9703194042095 31.744319404209502
18.268226865263493 24.9857731347365 18.549319404209502
18.9932268652635 8.522226865263498 20.7812268652635
5.405226865263501 19.245226865263497 4.386226865263502
16.7737731347365 5.781226865263498 14.470226865263498
19.4637731347365 17.9062268652635 12.733226865263497
29.8163194042095 17.0267731347365 16.791226865263503
17.4206805957905 10.7897731347365 27.842226865263505
20.557226865263495 2.2586805957904943 14.2137731347365
1.8552268652634964 22.4557731347365 20.0492268652635
9.7617731347365 11.784680595790505 20.3277731347365
14.9927731347365 26.974226865263496 15.994226865263506
14.7057731347365 9.743680595790494 3.421226865263499
20.374226865263502 21.2746805957905 17.1087731347365
12.8232268652635 3.530773134736501 27.5247731347365
19.8717731347365 10.715773134736502 13.9937731347365
14.521319404209503 24.439773134736498 4.4207731347365
11.046226865263499 19.030226865263494 4.4292268652634945
18.1887731347365 1.1887731347365005 13.547226865263504
31.8897731347365 13.2883194042095 0.9462268652635046
5.365680595790494 19.6757731347365 6.672865673682509
11.5152268652635 7.167226865263501 11.657226865263503
26.730226865263496 0.32722686526350486 4.120773134736501
15.857773134736501 5.261226865263502 31.325226865263495
14.2222268652635 11.2927731347365 17.6093194042095
19.602226865263496 20.5217731347365 24.3337731347365
8.709319404209499 23.0043194042095 9.690680595790496
28.509226865263493 8.6877731347365 18.7207731347365
12.937680595790496 6.008680595790494 6.703226865263495
0.25477313473649943 19.759226865263493 2.0927731347365004
23.1616805957905 24.5067731347365 21.6737731347365
7.324680595790497 26.770226865263503 23.5937731347365
8.776319404209499 9.732226865263499 11.897226865263498
9.259680595790499 23.138226865263498 28.3013194042095
11.988319404209502 22.227226865263496 11.735226865263499
10.8587731347365 12.670226865263501 23.8027731347365
29.7773194042095 27.808319404209502 2.8173194042095027
13.6597731347365 7.5907731347365 13.2537731347365
14.9327731347365 21.6263194042095 21.0283194042095
2.2302268652634964 30.776226865263503 16.5897731347365
32.1547731347365 12.4602268652635 26.9507731347365
12.2412268652635 19.961226865263505 9.490226865263502
