19.491226865263506 27.4127731347365 1.7072268652635003
3.8857731347364997 11.2607731347365 1.6632268652635034
30.9057731347365 19.423226865263494 26.742773134736503
1.6626805957905049 30.119773134736498 21.4297731347365
31.6043194042095 20.970226865263506 1.8522268652634963
12.2257731347365 11.2107731347365 8.5522268652635
22.1182268652635 18.0867731347365 27.377226865263502
31.0312268652635 31.440773134736503 5.742773134736501
12.7297731347365 25.827226865263505 9.728226865263501
24.6707731347365 8.9617731347365 17.974226865263496
9.449226865263505 6.9026805957905 9.592680595790497
16.3697731347365 18.625226865263507 25.5827731347365
3.888680595790504 29.392319404209502 17.6177731347365
23.1433194042095 10.694226865263495 10.918773134736501
15.979226865263506 29.494773134736498 20.0327731347365
8.0877731347365 4.761134326317503 0.08277313473649883
16.63068059579051 9.2057731347365 25.979680595790498
18.8967731347365 22.9727731347365 12.480226865263496
9.423226865263501 30.541226865263503 15.549773134736501
9.659226865263498 6.327680595790497 8.9717731347365
15.3177731347365 10.2057731347365 23.4607731347365
31.4567731347365 7.417226865263501 16.5882268652635
11.94413432631751 3.7576805957905037 2.103226865263501
23.7653194042095 6.846226865263496 4.691680595790501
21.815680595790496 9.8137731347365 28.571226865263505
20.3457731347365 24.0393194042095 13.712680595790502
8.6787731347365 17.482226865263506 17.8273194042095
15.096680595790502 24.1947731347365 22.7902268652635
1.6862268652634995 24.224680595790502 16.3223194042095
16.232680595790498 10.236226865263497 23.7453194042095
4.254226865263497 11.617773134736499 22.0367731347365
26.0577731347365 3.925226865263504 17.0607731347365
11.066319404209498 25.2547731347365 17.144226865263498
15.7597731347365 18.4867731347365 2.4872268652635015
9.603226865263501 28.8417731347365 11.4632268652635
12.2867731347365 0.06822686526350452 21.5972268652635
7.767773134736501 8.7687731347365 11.029773134736502
2.5272268652635006 19.1177731347365 17.791773134736502
23.3022268652635 10.226680595790498 0.546226865263499
12.868680595790494 6.113226865263499 30.5367731347365
25.7897731347365 15.216773134736501 29.943226865263505
30.0803194042095 10.9377731347365 5.0907731347365
4.0447731347365 8.514226865263502 10.221680595790502
1.5762268652635 11.726226865263499 14.3507731347365
0.7336805957905028 28.5593194042095 2.979773134736501
8.670226865263501 22.2317731347365 18.614226865263497
31.864865673682502 18.6963194042095 26.9427731347365
32.0667731347365 13.712226865263496 22.184226865263504
4.645773134736499 24.142226865263503 10.9163194042095
14.413226865263503 22.733773134736502 1.6417731347364999
23.8468656736825 5.421680595790505 29.726226865263506
12.3967731347365 11.469680595790493 12.973680595790498
17.4887731347365 0.8122268652635043 11.5302268652635
20.0347731347365 0.7706805957904947 24.795226865263494
1.1696805957904957 18.128226865263507 26.387226865263493
13.991773134736501 4.779680595790495 22.794773134736502
25.8547731347365 16.643226865263493 14.3837731347365
31.3967731347365 17.931226865263504 25.646226865263493
6.1707731347365 23.3867731347365 17.371226865263502
2.2676805957904946 9.111226865263497 21.5067731347365
3.424226865263499 8.800226865263504 22.9233194042095
15.667226865263501 19.150226865263498 2.7262268652634987
13.629226865263497 8.216319404209504 1.2277731347365002
13.913226865263503 17.256773134736502 19.9602268652635
25.1463194042095 0.03368059579049998 10.617226865263497
18.9557731347365 19.9287731347365 26.0337731347365
21.7787731347365 11.8427731347365 10.800680595790496
11.6727731347365 28.303773134736502 5.3817731347365
16.2252268652635 8.1997731347365 16.3262268652635
10.9882268652635 11.333226865263498 21.2027731347365
20.0017731347365 26.6113194042095 8.813226865263495
27.0117731347365 22.5617731347365 30.741773134736498
12.0637731347365 4.580226865263505 28.114865673682502
21.2253194042095 29.0743194042095 28.8357731347365
26.517226865263503 9.299680595790505 6.7697731347365
13.8497731347365 12.5032268652635 28.491226865263506
15.8632268652635 27.5437731347365 24.364226865263497
19.173226865263494 6.966680595790493 25.3106805957905
21.9902268652635 13.206226865263496 17.8117731347365
6.4562268652634955 5.187680595790496 25.3857731347365
14.0707731347365 13.1552268652635 29.9763194042095
4.2472268652634995 7.229773134736501 13.7107731347365
27.6377731347365 28.815773134736503 8.319226865263495
19.0617731347365 15.077226865263505 32.0717731347365
24.548226865263494 4.175680595790496 29.6297731347365
28.741319404209502 22.974773134736502 6.0212268652635
28.7037731347365 30.9067731347365 27.812226865263504
20.400226865263498 10.496680595790494 22.5573194042095
3.657226865263503 14.105226865263496 27.952226865263505
26.036226865263494 29.4177731347365 11.206226865263496
32.0507731347365 2.2612268652635024 28.797226865263504
20.9457731347365 21.1977731347365 4.8226805957905015
9.439680595790506 17.8973194042095 8.5577731347365
10.4743194042095 5.080680595790497 9.885680595790504
22.0972268652635 28.2967731347365 5.816773134736501
5.594226865263501 27.6143194042095 15.5327731347365
30.808319404209502 29.3357731347365 8.281226865263498
31.041773134736502 13.9937731347365 16.4487731347365
11.864226865263497 0.23022686526349645 18.354226865263506
21.4517731347365 29.4283194042095 29.616226865263506
4.986680595790503 11.651226865263503 6.278226865263498
31.5573194042095 16.8016805957905 4.352226865263496
27.340226865263496 10.0287731347365 1.8926805957904946
19.720226865263506 4.819773134736501 7.674226865263499
30.039226865263494 9.031680595790505 29.7583194042095
29.5667731347365 5.332773134736501 1.9082268652635008
10.431773134736499 5.095226865263498 21.400226865263498
29.2877731347365 27.860226865263506 24.9997731347365
14.684773134736501 23.825226865263495 1.4056805957904999
7.9517731347365 1.8706805957905033 1.789226865263501
1.5937731347364998 14.074226865263505 28.351226865263506
30.705865673682496 21.7416805957905 17.3202268652635
19.1897731347365 2.303680595790496 6.1727731347365005
3.1196805957904985 30.980226865263496 21.0907731347365
5.586680595790497 30.5013194042095 9.956773134736501
30.000226865263507 29.6507731347365 7.4512268652635
3.5306805957905 24.282319404209503 29.284865673682503
18.9583194042095 26.473226865263506 24.671319404209502
19.307226865263495 13.907226865263503 31.136226865263502
4.306773134736501 12.762319404209503 10.9882268652635
6.288226865263503 26.374226865263502 13.157226865263503
13.068226865263505 9.454680595790492 8.6007731347365
5.1372268652635 5.930226865263499 14.232773134736501
30.0967731347365 16.4026805957905 5.142773134736501
17.113319404209502 19.8947731347365 10.7132268652635
17.913773134736502 4.959226865263496 6.872680595790499
17.916773134736502 6.0702268652635 27.7217731347365
21.544226865263504 18.7463194042095 15.8517731347365
13.1187731347365 9.791226865263503 8.1967731347365
3.434773134736501 24.850865673682506 8.414226865263501
25.1647731347365 7.577226865263505 26.619226865263506
1.5087731347365008 10.787319404209502 15.8697731347365
5.577226865263505 26.416773134736502 10.217226865263498
5.6417731347365 1.192680595790506 29.590226865263496
15.2177731347365 8.5732268652635 23.9182268652635
7.9917731347364995 3.3262268652635 6.310680595790501
17.788773134736502 5.450226865263495 27.6337731347365
8.259680595790499 32.1427731347365 21.663773134736502
17.7747731347365 15.1517731347365 5.0067731347365
15.2917731347365 4.426226865263494 25.3577731347365
21.1467731347365 26.0947731347365 10.421773134736501
30.3977731347365 13.607865673682511 11.8262268652635
18.2757731347365 27.6327731347365 32.1243194042095
24.4787731347365 9.104680595790498 5.9777731347365
22.625226865263507 31.8267731347365 16.8417731347365
24.5703194042095 24.8382268652635 4.1127731347365
5.697773134736501 26.1647731347365 26.8297731347365
32.0117731347365 15.477680595790503 24.019680595790504
7.583680595790497 15.032226865263503 23.4613194042095
7.4047731347365 26.795226865263494 6.048226865263501
16.2897731347365 1.7042268652635002 4.076680595790492
5.6167731347364995 18.0827731347365 21.7487731347365
4.819226865263495 16.825319404209502 5.418773134736501
28.0727731347365 8.8752268652635 14.8617731347365
17.630226865263502 27.9543194042095 1.8492268652634962
6.903226865263498 5.476680595790498 31.5822268652635
26.324680595790497 27.512226865263493 20.1182268652635
15.418773134736501 7.228680595790493 14.4692268652635
23.4587731347365 16.062226865263504 31.0603194042095
18.232226865263506 28.4157731347365 24.1557731347365
28.5337731347365 11.7627731347365 26.186680595790506
5.397226865263498 26.4587731347365 1.9816805957904933
19.470226865263506 10.2267731347365 2.9503194042094982
31.5372268652635 25.744226865263506 22.8487731347365
17.2377731347365 7.8297731347365005 11.0822268652635
19.0607731347365 28.117226865263497 8.845226865263498
29.5327731347365 30.4083194042095 7.716226865263501
19.4803194042095 31.724773134736502 25.0552268652635
25.000226865263507 6.1477731347365 6.171226865263499
2.005680595790494 22.4077731347365 11.642226865263503
19.842865673682496 21.0257731347365 6.245226865263497
16.3677731347365 14.438226865263495 13.438226865263495
23.4413194042095 18.480773134736502 2.2472268652634995
17.4067731347365 13.876226865263497 23.589226865263505
7.3597731347365 31.221319404209503 23.1267731347365
7.674226865263499 5.728680595790493 23.1177731347365
12.772226865263498 15.455680595790497 26.0757731347365
31.9147731347365 3.3056805957905055 19.0147731347365
6.865226865263502 20.4547731347365 13.4697731347365
27.1537731347365 20.339226865263505 31.937226865263504
16.880226865263502 5.0002268652635 16.718226865263496
11.670226865263501 17.283226865263494 12.089680595790497
25.9483194042095 6.629226865263497 6.054680595790501
17.6107731347365 26.1317731347365 28.2932268652635
22.7283194042095 31.2717731347365 13.181226865263504
11.980226865263496 30.9717731347365 10.016226865263498
26.003226865263507 13.0882268652635 2.090680595790502
16.096680595790502 28.6832268652635 13.990226865263502
26.0793194042095 27.6317731347365 2.700773134736501
16.4367731347365 17.7437731347365 2.2972268652635037
28.1417731347365 13.2947731347365 26.559773134736503
5.8996805957905 14.7887731347365 10.764773134736501
13.6157731347365 24.121680595790508 22.6927731347365
6.387680595790499 6.700226865263495 18.224773134736502
3.7497731347365004 22.398319404209502 9.5937731347365
30.275680595790504 25.628319404209503 2.6947731347365007
3.1447731347365 12.8507731347365 27.9452268652635
11.1887731347365 27.3197731347365 17.951680595790506
29.8287731347365 8.954319404209503 10.567134326317515
14.8617731347365 7.358226865263497 5.770226865263503
24.5187731347365 25.4723194042095 3.8622268652635015
3.915773134736501 15.202680595790497 8.7297731347365
23.2147731347365 18.496226865263502 9.122680595790499
12.5152268652635 7.677680595790505 8.0227731347365
25.720680595790498 5.861226865263497 31.1957731347365
7.370226865263497 19.7617731347365 7.420319404209504
30.8197731347365 3.0426805957905003 11.0047731347365
12.799773134736501 17.910773134736502 19.378319404209503
28.190226865263504 16.2607731347365 18.7747731347365
8.1783194042095 21.3412268652635 19.8257731347365
0.8022268652634992 19.5347731347365 26.330226865263505
17.0617731347365 13.2567731347365 12.7712268652635
4.004226865263497 19.7207731347365 31.809773134736503
0.09077313473649973 20.2897731347365 25.6537731347365
13.9542268652635 30.0837731347365 31.1493194042095
21.126226865263497 27.0853194042095 24.0312268652635
25.8846805957905 24.0792268652635 28.679226865263495
4.0547731347365 21.1517731347365 22.407319404209503
5.8793194042095 25.236226865263497 26.002226865263502
22.8532268652635 29.9637731347365 29.2853194042095
32.1727731347365 19.985226865263506 0.8166805957905012
5.963680595790493 14.3157731347365 30.898319404209502
18.5882268652635 26.9487731347365 29.6122268652635
28.927319404209502 18.166226865263503 5.590680595790502
24.1527731347365 27.696226865263505 30.4573194042095
30.181773134736503 25.4017731347365 30.1307731347365
23.260226865263498 22.134226865263493 2.9506805957905016
24.608226865263497 23.8737731347365 10.481319404209504
11.2012268652635 6.9467731347365 29.5607731347365
9.769226865263498 6.163680595790495 3.502680595790494
10.874680595790494 4.410680595790495 20.866226865263506
29.096319404209503 7.9946805957904985 11.485773134736501
22.087226865263496 20.6177731347365 16.497226865263507
16.261226865263502 19.590319404209502 18.209226865263496
29.247773134736498 16.598680595790498 9.6647731347365
3.2702268652635027 31.4553194042095 28.8393194042095
18.4842268652635 10.330680595790497 4.0237731347365
31.992773134736503 9.879226865263497 6.4116805957905
27.604226865263506 0.9242268652634991 4.633680595790494
4.703680595790502 26.8577731347365 18.555680595790506
3.6312268652635 29.6537731347365 0.11122686526349668
19.8532268652635 3.2996805957905053 19.381226865263493
17.0787731347365 31.4263194042095 10.372773134736502
9.7507731347365 4.424680595790505 14.540680595790505
25.822226865263495 11.7637731347365 11.8017731347365
3.2847731347365006 21.0342268652635 20.0552268652635
32.132773134736496 10.970226865263498 5.641680595790504
13.560226865263495 13.2837731347365 15.6402268652635
10.867226865263497 31.5377731347365 5.939680595790506
18.0863194042095 5.094773134736501 25.476226865263506
31.370773134736503 5.449226865263505 7.7277731347365
24.0957731347365 5.7637731347365 9.6132268652635
21.3532268652635 19.8412268652635 30.829680595790506
27.896226865263493 21.6862268652635 15.71486567368251
18.1217731347365 14.5347731347365 29.8927731347365
22.9737731347365 30.3873194042095 16.9387731347365
4.966226865263501 10.749226865263502 13.675226865263504
11.2836805957905 26.9872268652635 2.350680595790493
1.0117731347365009 30.9133194042095 11.3137731347365
6.358226865263497 23.0597731347365 16.8947731347365
3.7157731347364997 31.7437731347365 9.3777731347365
20.9253194042095 29.0157731347365 28.8833194042095
3.188226865263495 19.858680595790503 20.4047731347365
27.541226865263503 6.7817731347365005 31.9357731347365
18.357319404209502 18.3973194042095 16.3957731347365
11.5867731347365 15.675226865263504 16.3726805957905
10.247773134736502 10.233226865263497 20.4362268652635
23.4617731347365 30.9157731347365 14.0032268652635
26.2416805957905 21.424319404209502 19.8717731347365
14.0067731347365 32.013773134736496 25.5497731347365
11.7652268652635 5.5122268652635 13.849680595790502
24.8877731347365 26.901226865263503 26.4527731347365
16.0627731347365 11.380319404209498 19.2437731347365
11.5377731347365 11.9377731347365 22.655226865263494
23.1987731347365 14.9022268652635 4.925773134736501
18.7417731347365 27.3807731347365 9.110226865263499
19.639319404209502 4.212680595790502 7.385226865263498
21.8513194042095 1.7127731347364996 0.5442268652635036
0.2882268652635034 32.071226865263505 15.6067731347365
24.294226865263504 29.427773134736498 19.7577731347365
29.735319404209502 13.3107731347365 9.354680595790498
22.5767731347365 25.165680595790505 22.4987731347365
29.0433194042095 29.6123194042095 19.926226865263494
19.3112268652635 8.467226865263498 21.0487731347365
19.2017731347365 27.0912268652635 15.2117731347365
25.980773134736502 27.5057731347365 21.434226865263504
17.1203194042095 8.0927731347365 11.0727731347365
20.568226865263505 14.688226865263495 24.376773134736503
21.370226865263497 1.4542268652635002 25.339226865263505
26.0687731347365 2.343226865263496 22.760226865263498
26.180680595790506 14.1252268652635 32.044226865263504
19.349773134736502 13.8657731347365 29.9553194042095
17.8682268652635 12.6862268652635 14.9617731347365
28.0337731347365 29.2693194042095 14.852226865263496
7.176226865263494 26.1413194042095 6.7567731347365
29.3733194042095 5.037680595790505 28.5937731347365
25.3353194042095 7.248226865263497 27.6593194042095
21.8537731347365 21.690226865263504 31.114773134736502
10.078226865263495 14.275226865263498 27.6712268652635
16.628226865263507 1.5212268652635004 28.500773134736498
4.052226865263499 20.4092268652635 22.6717731347365
13.109680595790493 17.4557731347365 20.6883194042095
4.317680595790506 10.904773134736502 26.370226865263497
4.366226865263499 12.7687731347365 9.1387731347365
14.7027731347365 0.40268059579049975 6.8382268652635005
7.031226865263498 4.381680595790499 1.2312268652635012
14.3853194042095 19.241319404209502 13.9082268652635
16.2077731347365 20.6802268652635 17.0617731347365
29.5667731347365 20.638226865263498 19.7777731347365
28.3837731347365 22.1977731347365 30.7083194042095
0.7672268652635026 19.155226865263494 17.638226865263498
16.0577731347365 12.3227731347365 8.6797731347365
5.667226865263501 19.3897731347365 9.8777731347365
30.726226865263506 24.435226865263495 7.9137731347365
16.815226865263504 21.227773134736502 18.788773134736502
12.7617731347365 0.031226865263498382 25.1053194042095
11.834226865263496 13.9907731347365 27.706226865263496
3.3437731347365 10.270773134736501 12.871680595790494
29.1397731347365 5.389773134736501 1.189680595790506
25.5867731347365 5.527773134736501 5.4587731347365
1.9002268652634982 7.005773134736501 22.1327731347365
32.0253194042095 9.856226865263501 32.0747731347365
11.1582268652635 9.650226865263498 3.0272268652635006
30.261226865263502 25.6032268652635 29.660226865263503
12.707319404209503 0.44168059579050123 21.038773134736502
1.2077731347365006 5.6843194042095 0.1382268652634977
20.9037731347365 21.3247731347365 5.577226865263505
32.0787731347365 13.233226865263497 0.3082268652634994
2.039226865263501 8.766226865263498 9.8227731347365
3.901680595790495 2.192680595790506 19.788226865263503
16.4577731347365 29.733226865263497 13.918680595790505
6.629226865263497 24.2217731347365 23.518226865263493
12.0397731347365 25.940226865263504 15.019226865263498
7.9872268652635015 24.8967731347365 31.6627731347365
11.4086805957905 17.613319404209502 11.3747731347365
16.819226865263495 6.517226865263503 17.916773134736502
0.5776805957904969 5.5547731347365 0.13022686526350213
20.8847731347365 10.2397731347365 12.708226865263498
21.9842268652635 1.8722268652634995 26.5687731347365
0.3046805957905008 8.2177731347365 19.5533194042095
12.525226865263498 8.554226865263495 19.3697731347365
10.5337731347365 11.9797731347365 3.2897731347364996
30.738773134736498 4.796226865263499 6.914226865263501
32.0753194042095 13.4147731347365 16.2017731347365
4.392773134736501 7.9176805957905 29.9247731347365
10.729226865263499 6.642680595790495 30.0137731347365
28.3437731347365 21.4797731347365 15.100226865263501
3.603226865263501 19.619226865263506 16.8667731347365
30.622773134736498 14.891226865263498 27.871680595790508
21.842226865263505 25.6077731347365 20.2072268652635
17.5887731347365 27.910773134736502 5.9463194042095004
24.575319404209502 8.287226865263499 22.1747731347365
12.8397731347365 16.950226865263495 26.4122268652635
5.868680595790494 12.241773134736501 17.0127731347365
23.712226865263496 20.6187731347365 5.411226865263501
0.7112268652634981 16.309226865263504 5.986226865263497
22.6687731347365 28.345226865263506 6.3787731347365
25.3487731347365 24.3262268652635 9.171773134736501
2.127226865263502 10.889773134736501 2.1646805957905
24.397680595790504 20.5372268652635 2.7087731347365
31.0327731347365 22.4017731347365 3.642773134736501
5.7712268652635 14.108680595790503 1.1256805957904987
13.230680595790503 1.6097731347364999 12.809773134736501
22.181226865263504 7.6537731347365 3.955226865263505
17.518226865263493 3.033226865263501 16.4643194042095
25.760226865263498 12.690226865263504 0.6667731347365002
31.7633194042095 13.264680595790495 18.776226865263503
18.2012268652635 8.979226865263499 6.703773134736501
21.495226865263497 10.1312268652635 13.177319404209502
16.182226865263495 5.592226865263498 5.2787731347365
14.644226865263498 23.2217731347365 8.091680595790493
11.709773134736501 3.0837731347365 2.411226865263501
27.3022268652635 1.8102268652634947 16.198680595790506
7.8722268652634995 25.3562268652635 32.0703194042095
12.333319404209501 24.158226865263494 27.3597731347365
5.392773134736501 14.632226865263497 2.9997731347365004
1.3196805957905013 18.665865673682504 13.975319404209504
0.8956805957904947 17.620226865263497 12.1496805957905
26.8867731347365 12.7866805957905 31.346226865263496
4.186680595790506 1.8286805957905017 4.978680595790493
15.825226865263495 2.232226865263499 12.648319404209499
30.3807731347365 15.986226865263497 2.721226865263496
17.771226865263493 10.1162268652635 9.085680595790492
19.108226865263497 25.5247731347365 13.4332268652635
28.6007731347365 18.5037731347365 15.270773134736501
4.110226865263499 0.5632268652634949 14.8187731347365
6.593226865263496 11.799226865263499 16.539226865263494
5.235226865263499 19.833226865263505 3.861680595790503
30.0767731347365 31.2737731347365 28.0957731347365
20.2667731347365 2.6736805957905005 25.345226865263506
12.581319404209498 2.322226865263495 20.0717731347365
2.654226865263503 10.488773134736501 2.2857731347365
23.875773134736498 9.144680595790504 27.0673194042095
2.2742268652635005 19.124226865263502 31.8687731347365
20.434226865263504 8.321680595790497 16.336680595790497
11.2487731347365 24.3843194042095 2.4262268652634944
28.765226865263493 17.7222268652635 9.642226865263503
17.217226865263505 24.483773134736502 12.3777731347365
7.9267731347365 12.392680595790495 21.4097731347365
20.763226865263498 8.110226865263499 16.6562268652635
2.0537731347365007 2.6766805957905007 23.9452268652635
18.9482268652635 4.938680595790501 6.603226865263501
28.4543194042095 18.983773134736502 14.574226865263505
24.1763194042095 6.950226865263495 9.388226865263498
28.551226865263494 24.3207731347365 24.3713194042095
31.2073194042095 13.0327731347365 16.175226865263504
10.081226865263496 8.4477731347365 25.8363194042095
31.6977731347365 6.3322268652635 28.800773134736502
11.333226865263498 5.4777731347365 13.193226865263505
20.0737731347365 8.411226865263501 20.2723194042095
30.7497731347365 26.0947731347365 2.478680595790493
26.078226865263495 31.6592268652635 21.2803194042095
3.8312268652634955 6.435680595790501 12.9057731347365
12.603226865263501 29.9373194042095 19.6237731347365
22.8377731347365 20.4677731347365 4.405226865263501
29.2787731347365 8.6507731347365 29.7983194042095
19.150226865263498 6.9292268652634945 25.6707731347365
32.122319404209506 6.120226865263497 13.6247731347365
28.030226865263494 8.2807731347365 24.260226865263498
13.5487731347365 5.0366805957905 8.446226865263505
27.2877731347365 28.593226865263496 25.123226865263497
20.446226865263505 13.760226865263498 24.6597731347365
25.516226865263498 27.7342268652635 0.12431940420949417
6.375680595790499 19.0797731347365 26.366226865263506
18.0167731347365 29.0063194042095 8.247773134736502
18.8257731347365 32.092319404209505 18.8997731347365
16.4087731347365 2.5082268652635022 23.2387731347365
6.708680595790497 3.438226865263495 31.714226865263505
17.067680595790506 1.6836805957905057 10.974226865263496
22.6427731347365 30.2057731347365 5.9557731347365
11.6132268652635 30.2167731347365 3.600680595790493
26.9053194042095 29.5636805957905 11.174226865263499
4.245226865263497 1.8762268652634972 15.402773134736501
28.4602268652635 2.2472268652634995 1.1147731347365006
12.657226865263503 2.9226805957904958 28.2077731347365
24.128226865263507 30.9632268652635 18.9677731347365
12.855680595790503 17.2367731347365 25.209226865263496
23.89268059579051 20.083226865263505 3.127680595790494
28.036226865263494 17.041773134736502 23.2102268652635
12.257226865263497 4.840680595790502 16.249226865263502
3.2986805957905005 21.818680595790497 19.9267731347365
6.5807731347365 6.207680595790492 17.500226865263507
2.5412268652635035 16.703226865263495 18.1003194042095
28.644226865263498 24.1587731347365 20.664226865263494
16.845226865263506 21.1987731347365 28.3137731347365
24.7037731347365 26.9787731347365 31.294773134736502
14.700226865263495 28.180773134736498 15.126773134736501
25.1357731347365 9.1937731347365 17.643226865263493
2.0542268652634945 0.5002268652634996 8.231226865263501
5.495226865263497 17.7967731347365 11.226226865263499
13.4747731347365 21.2177731347365 24.8412268652635
25.742773134736503 4.4162268652635035 5.822226865263495
1.6341343263175077 6.524773134736501 17.0037731347365
11.3937731347365 9.0672268652635 15.462226865263496
9.954680595790492 15.388226865263498 6.8977731347365
12.496680595790494 15.968865673682501 22.165680595790505
28.940773134736503 13.755226865263502 15.6402268652635
13.5997731347365 13.7467731347365 29.2596805957905
16.7197731347365 29.851226865263506 6.9907731347365
16.7417731347365 16.6147731347365 28.761226865263502
27.9017731347365 17.3262268652635 9.8617731347365
28.429226865263495 2.2746805957904996 26.5777731347365
10.8992268652635 25.815226865263504 18.9447731347365
12.8872268652635 22.875226865263507 23.667226865263494
1.317680595790506 7.588773134736501 17.3547731347365
5.1862268652634995 4.868226865263502 25.5907731347365
6.0996805957905025 7.0587731347365 17.289226865263494
9.5057731347365 3.8527731347365 8.2547731347365
20.636226865263502 12.1907731347365 0.8752268652634996
10.695319404209503 7.469773134736501 3.1667731347365002
6.292226865263501 15.469319404209504 29.2217731347365
26.242865673682502 9.8853194042095 19.3052268652635
9.2817731347365 5.7537731347365 3.9486805957905062
29.025226865263498 21.0732268652635 10.664226865263501
20.319226865263495 19.3677731347365 31.008226865263502
25.998773134736503 16.1657731347365 22.7097731347365
8.7622268652635 6.930226865263499 24.346226865263496
28.8563194042095 11.385226865263498 2.6041343263175065
4.486680595790503 12.1372268652635 17.503226865263507
28.6062268652635 21.1307731347365 15.0937731347365
28.642319404209502 5.4597731347364995 27.872226865263507
12.0337731347365 3.293226865263499 3.593226865263496
2.1157731347365 0.614680595790503 7.075226865263495
7.458226865263498 11.696226865263505 7.3217731347365
27.404226865263503 2.088773134736501 25.5847731347365
25.547773134736502 27.621226865263502 26.8977731347365
18.202226865263505 18.8243194042095 15.1837731347365
11.894680595790504 4.394319404209501 27.3377731347365
23.143226865263493 23.9517731347365 4.065226865263504
2.5557731347364996 25.5437731347365 4.059680595790496
14.1406805957905 21.1007731347365 24.238226865263506
28.377226865263502 24.574226865263505 31.5797731347365
8.6237731347365 25.681226865263504 6.530773134736501
29.9477731347365 13.990226865263502 17.2207731347365
1.8547731347365009 5.983680595790503 1.3482268652634986
28.689773134736498 18.2782268652635 5.136773134736501
30.001773134736503 29.2607731347365 19.561319404209502
30.033226865263494 23.1197731347365 17.351226865263506
31.4808656736825 6.374226865263502 3.6263194042095
31.6067731347365 4.619226865263499 8.441226865263495
29.5852268652635 5.901226865263503 28.526226865263503
16.6457731347365 5.583226865263498 19.232226865263506
17.9506805957905 11.1192268652635 3.309226865263504
5.1677731347365 14.505226865263502 2.982773134736501
23.7817731347365 19.6473194042095 20.994226865263506
0.6872268652635043 28.2167731347365 25.128226865263507
6.907226865263503 0.5422268652635012 11.601226865263499
30.4487731347365 23.2992268652635 7.834226865263496
9.257226865263497 6.400680595790504 8.431773134736499
14.938226865263495 15.0077731347365 20.776226865263503
6.1252268652635 26.0972268652635 12.1706805957905
14.255680595790494 11.772680595790504 3.9246805957905053
8.6847731347365 23.7767731347365 4.864226865263497
1.053226865263504 18.340226865263496 31.2557731347365
31.151319404209502 29.2927731347365 1.3762268652634972
18.8393194042095 20.274226865263493 9.7837731347365
10.616773134736501 16.3077731347365 1.0137731347364998
4.2012268652635 12.696226865263505 26.124226865263502
8.626226865263497 27.021226865263493 19.4607731347365
27.4607731347365 6.118226865263502 31.562773134736503
20.756226865263493 19.0037731347365 26.493680595790508
23.756226865263493 12.528226865263498 27.0703194042095
4.745226865263497 29.5187731347365 7.499226865263502
20.845134326317506 14.299226865263499 14.031680595790505
5.7667731347365 16.349226865263496 31.2017731347365
0.7427731347365008 15.1597731347365 4.171226865263499
12.047680595790496 29.166226865263503 3.9397731347365
19.416773134736502 18.453226865263495 0.5176805957904946
3.540773134736501 20.819226865263495 31.9457731347365
22.535773134736502 5.363680595790498 25.468226865263496
8.0713194042095 12.345226865263498 5.656680595790505
12.024773134736499 13.159226865263498 2.1396805957904945
25.1703194042095 10.4542268652635 27.1693194042095
25.931773134736503 28.2177731347365 25.236226865263497
22.654226865263503 4.7532268652635 30.7697731347365
25.1323194042095 7.730680595790503 20.9607731347365
27.0817731347365 15.1432268652635 23.6652268652635
23.8957731347365 18.1487731347365 28.626226865263497
14.049680595790505 14.1736805957905 25.498773134736503
15.169226865263504 17.7893194042095 5.238226865263499
17.340680595790502 12.964226865263498 14.121226865263502
30.7667731347365 28.2102268652635 25.3597731347365
15.2467731347365 9.3752268652635 16.839680595790497
1.3802268652635021 10.1337731347365 9.411226865263501
26.8997731347365 3.136773134736501 16.897226865263498
19.5983194042095 11.225226865263501 4.220680595790498
12.075773134736501 26.1037731347365 11.0792268652635
24.6772268652635 7.397226865263498 21.1622268652635
18.132226865263497 28.3412268652635 25.553773134736502
13.1597731347365 15.956773134736501 22.3877731347365
8.1067731347365 1.2166805957904927 20.2812268652635
19.9187731347365 9.6647731347365 22.7567731347365
25.5097731347365 13.164319404209504 19.4927731347365
27.809680595790496 22.1333194042095 5.2657731347365
3.296226865263499 13.633226865263502 1.8242268652635047
24.8652268652635 13.043773134736501 2.197226865263495
2.8186805957904966 1.6652268652634987 19.521226865263493
26.700319404209502 16.759226865263493 24.811773134736498
27.4416805957905 20.7877731347365 31.9467731347365
24.1827731347365 17.5187731347365 28.273319404209502
14.187773134736501 24.4587731347365 20.589226865263505
7.2042268652635 26.6747731347365 21.7557731347365
0.4642268652634982 6.0077731347364995 16.6062268652635
24.806773134736503 0.9146805957905002 22.4707731347365
27.7073194042095 23.074226865263505 8.858680595790503
17.3112268652635 19.547226865263504 25.748773134736503
31.1797731347365 28.610226865263506 1.046226865263499
15.296226865263499 5.0457731347365 20.434226865263504
21.8027731347365 29.6673194042095 2.1147731347365006
31.8273194042095 20.9877731347365 7.1466805957904995
26.4602268652635 28.0177731347365 31.7573194042095
10.086680595790497 4.789226865263501 22.848226865263506
28.854226865263506 31.389319404209502 6.357226865263499
0.8342268652634957 29.0552268652635 24.4707731347365
19.1892268652635 22.5167731347365 13.5057731347365
25.1767731347365 32.0367731347365 31.4212268652635
11.9697731347365 27.3743194042095 23.788773134736502
4.0847731347364995 16.926226865263494 10.9077731347365
3.7786805957905045 30.7317731347365 28.102773134736502
11.696226865263505 21.0792268652635 25.4123194042095
18.848226865263506 26.1947731347365 19.5857731347365
10.135226865263498 25.0103194042095 18.5223194042095
27.413226865263503 8.2527731347365 26.7677731347365
20.919773134736502 3.5057731347365007 25.1887731347365
30.247773134736498 21.769226865263498 16.480773134736502
10.348226865263499 21.8537731347365 13.8292268652635
0.4502268652634953 24.0897731347365 23.814773134736498
2.1952268652635 9.931773134736499 31.488226865263506
12.979226865263499 28.8337731347365 8.904226865263503
28.0762268652635 17.6477731347365 22.8943194042095
2.025865673682503 10.4727731347365 4.658226865263501
31.6493194042095 19.7012268652635 0.44222686526349975
29.9173194042095 6.617773134736501 1.1867731347364998
2.5486805957905005 25.371865673682507 28.4077731347365
31.1547731347365 18.3172268652635 26.3427731347365
12.0212268652635 21.980226865263496 24.4967731347365
8.4692268652635 31.855226865263496 16.628226865263507
6.2957731347365 14.481226865263501 31.6443194042095
25.611226865263497 21.6943194042095 19.1092268652635
3.252680595790494 6.0306805957905 5.665773134736501
11.9427731347365 25.5397731347365 1.1256805957904987
26.024226865263493 8.1657731347365 17.6727731347365
16.0822268652635 30.8816805957905 27.7627731347365
17.485226865263506 17.7697731347365 22.5317731347365
12.598319404209501 26.0673194042095 3.3941343263175128
11.357773134736501 17.9017731347365 25.0737731347365
2.032680595790495 25.274226865263493 29.7497731347365
7.302680595790505 22.0907731347365 29.8187731347365
20.273226865263503 17.421319404209502 4.2017731347365
32.101773134736504 6.4572268652635 15.374226865263502
4.050773134736501 15.2162268652635 9.497680595790499
5.2117731347365 22.9272268652635 29.4583194042095
11.5062268652635 5.156226865263498 32.0522268652635
2.7806805957905 32.0127731347365 9.282226865263503
9.138680595790504 24.727226865263496 23.023226865263503
21.3412268652635 9.6522268652635 17.104226865263506
17.919226865263504 8.4807731347365 10.0087731347365
29.491226865263506 0.9352268652634947 2.876773134736501
10.7866805957905 9.325773134736501 15.202226865263505
5.403226865263498 14.413226865263503 16.6277731347365
8.995773134736499 26.7037731347365 21.9493194042095
29.7377731347365 1.7772268652635006 14.2896805957905
12.1497731347365 16.1447731347365 17.333226865263505
20.741226865263506 4.703226865263495 23.5217731347365
3.7232268652634986 10.7947731347365 3.5346805957905048
19.528680595790505 20.6002268652635 7.4292268652634945
13.8877731347365 22.878773134736498 23.1503194042095
21.654226865263503 2.9422268652634997 2.1297731347364994
25.477226865263496 13.411226865263501 22.172226865263504
17.3897731347365 7.294319404209499 13.1037731347365
23.5867731347365 10.428226865263504 10.0426805957905
22.066226865263495 16.3067731347365 19.6217731347365
4.0702268652635 23.2207731347365 8.229226865263499
1.4892268652634968 26.9587731347365 24.480773134736502
19.749226865263502 20.0517731347365 10.1437731347365
7.7187731347365 18.1237731347365 9.4332268652635
24.143226865263493 20.7877731347365 12.864226865263497
7.0062268652635 24.7577731347365 12.9082268652635
20.3697731347365 2.4166805957904955 7.053773134736501
21.3867731347365 23.050773134736502 15.796226865263499
18.391226865263498 20.5847731347365 7.712226865263496
21.9037731347365 8.7913194042095 14.6772268652635
19.443226865263505 30.8123194042095 25.877226865263502
29.239773134736502 6.639773134736501 2.6052268652634964
26.0397731347365 15.769226865263498 17.598226865263506
9.325226865263495 5.620226865263497 8.6327731347365
6.617226865263497 19.8607731347365 11.416226865263503
0.21977313473650106 10.1402268652635 8.249680595790494
20.5707731347365 24.2577731347365 3.9166805957904955
25.4932268652635 18.616226865263506 6.642226865263503
1.527773134736501 1.3242268652635047 16.1297731347365
5.066773134736501 25.8187731347365 25.971319404209503
26.058319404209502 25.714226865263505 16.1437731347365
5.671226865263499 16.1897731347365 27.744773134736498
27.913226865263503 23.810226865263495 7.8202268652635
3.461226865263498 8.3477731347365 28.9793194042095
0.6927731347365 5.7376805957904935 15.358226865263497
14.484226865263501 11.519680595790504 30.0672268652635
21.5397731347365 20.0867731347365 16.5347731347365
27.1517731347365 1.4082268652635008 30.687773134736503
24.7313194042095 28.5913194042095 25.4787731347365
4.5797731347365005 4.714319404209501 25.180680595790506
15.136226865263502 29.244226865263506 14.482226865263499
23.4117731347365 8.1507731347365 26.277226865263493
15.7897731347365 16.7017731347365 29.8273194042095
30.980226865263496 16.262319404209503 4.188680595790501
29.482319404209502 30.1682268652635 20.749226865263502
9.657226865263503 29.7252268652635 27.309773134736503
23.4373194042095 6.802226865263499 22.8973194042095
29.762226865263493 5.856226865263501 2.7097731347364995
4.658773134736501 8.2562268652635 0.7406805957904936
15.184226865263504 0.44222686526349975 5.3812268652635
23.980773134736502 30.610319404209502 21.145226865263503
8.6432268652635 22.038773134736502 19.562134326317505
6.4627731347365 2.050680595790496 10.313226865263495
31.355226865263496 29.648319404209502 20.538773134736502
21.5557731347365 0.7857731347365 25.276319404209502
14.2607731347365 26.1337731347365 14.773226865263503
15.016226865263498 2.677226865263499 12.758319404209498
8.770226865263503 14.421773134736501 22.373680595790503
23.3532268652635 22.8622268652635 30.0882268652635
29.1737731347365 19.8412268652635 20.2806805957905
13.937680595790496 2.8007731347365006 7.5937731347365
28.070680595790506 23.1913194042095 25.5377731347365
31.1643194042095 5.9937731347365 4.963773134736501
16.3437731347365 6.6187731347365 4.370680595790503
22.084226865263496 0.8536805957904932 4.391680595790504
4.1322268652634975 12.0157731347365 1.1982268652635
14.886226865263502 5.777226865263501 3.623773134736501
10.043773134736501 16.809226865263504 15.850226865263501
3.688226865263495 8.439680595790506 28.2102268652635
25.821226865263505 16.6712268652635 28.5912268652635
29.9362268652635 12.417226865263501 9.967226865263498
6.822773134736501 13.571226865263505 12.116773134736501
29.638226865263498 3.5202268652635027 18.6517731347365
4.703226865263495 15.350226865263501 0.7896805957905002
4.051680595790501 11.817319404209503 26.443226865263505
8.479226865263499 30.894226865263498 21.5087731347365
22.750319404209502 11.8557731347365 10.578773134736501
20.580226865263505 22.581319404209502 32.048226865263494
24.126773134736503 24.342226865263505 28.078226865263495
17.7317731347365 16.397226865263498 28.7973194042095
27.080226865263505 25.3363194042095 14.079319404209503
22.874680595790508 9.2652268652635 12.0547731347365
31.7877731347365 2.259680595790499 24.9267731347365
1.4722268652635009 3.3212268652635046 24.393226865263493
30.8467731347365 15.2147731347365 4.462226865263496
13.2557731347365 17.0732268652635 21.0552268652635
1.9567731347365012 26.5347731347365 4.098773134736501
2.4717731347365 22.783226865263494 16.8167731347365
25.0723194042095 26.800773134736502 3.912680595790505
17.5703194042095 21.4026805957905 0.772319404209501
0.38577313473649966 22.2787731347365 13.522319404209501
10.5577731347365 24.675773134736502 17.875226865263507
19.0372268652635 29.651319404209502 7.840226865263496
6.5396805957905 12.5792268652635 5.055226865263499
18.5147731347365 14.7207731347365 24.843226865263496
19.810226865263495 3.7077731347365006 19.4437731347365
7.521134326317508 4.7956805957905 31.998226865263497
8.7927731347365 22.5367731347365 30.0277731347365
6.9977731347365 25.730773134736502 21.3897731347365
24.934773134736503 26.5603194042095 25.678773134736502
9.091319404209504 20.364773134736502 26.2987731347365
13.034226865263498 24.431773134736503 29.0977731347365
24.376773134736503 20.4887731347365 4.292226865263501
15.089680595790497 13.819226865263495 7.8557731347365
1.3587731347365004 18.504226865263497 18.1657731347365
27.9617731347365 2.280773134736501 0.3817731347365001
18.8183194042095 30.9237731347365 25.3747731347365
16.5047731347365 3.6617731347364995 24.690680595790496
12.295226865263501 9.299680595790505 20.2446805957905
9.8007731347365 30.8523194042095 16.5307731347365
8.822226865263495 20.5737731347365 17.945773134736502
25.9587731347365 23.2207731347365 25.1592268652635
16.2003194042095 6.421773134736501 18.212680595790502
26.996226865263502 28.492226865263497 16.3437731347365
7.860226865263499 22.1177731347365 29.372773134736498
18.398226865263503 21.0363194042095 21.7937731347365
16.2587731347365 31.857226865263506 4.9026805957905
26.0377731347365 30.3913194042095 2.580226865263505
23.7303194042095 23.6517731347365 30.2933194042095
7.6616805957905 30.892319404209502 2.475680595790493
14.0367731347365 8.5002268652635 7.2827731347365
5.910226865263503 6.555226865263499 16.7977731347365
10.1387731347365 19.092226865263505 3.0402268652634987
11.792226865263501 27.6583194042095 17.0147731347365
27.2317731347365 12.142680595790495 1.144226865263498
17.400226865263498 8.6277731347365 10.8142268652635
15.0337731347365 13.7802268652635 2.502226865263502
28.307226865263495 0.7767731347364997 1.4192268652635036
5.633773134736501 16.8442268652635 22.0817731347365
23.483773134736502 0.15822686526350083 11.258226865263502
3.8217731347364996 4.0687731347364995 24.5987731347365
24.108773134736502 20.1832268652635 19.0727731347365
3.1392268652635025 19.877134326317503 22.739226865263497
14.6517731347365 14.808680595790506 7.133226865263502
16.059680595790496 27.444226865263495 18.6557731347365
30.501226865263497 11.7667731347365 6.7737731347365
22.449226865263505 2.228680595790493 0.2837731347365011
16.679226865263495 28.9657731347365 2.7761343263175036
30.0237731347365 24.7343194042095 11.7987731347365
11.6257731347365 26.605773134736502 28.803773134736502
4.6322268652634975 9.928226865263504 21.886226865263502
21.939773134736498 7.395680595790495 14.2897731347365
1.3582268652634966 9.941226865263495 7.175226865263504
24.227773134736502 13.1117731347365 6.5927731347365
4.7737731347365 22.4152268652635 9.480226865263496
12.616680595790498 9.962773134736501 22.017226865263503
25.7257731347365 3.4322268652634946 16.501226865263497
12.5002268652635 27.5737731347365 24.003773134736498
2.608680595790503 18.9597731347365 5.187773134736501
10.230226865263496 28.9003194042095 15.360226865263499
17.953226865263495 18.392226865263503 14.351319404209502
5.408226865263501 21.560226865263495 4.0062268652635
17.607226865263506 7.304319404209497 11.676226865263494
6.525226865263498 17.971680595790502 26.2357731347365
6.7347731347365 15.977226865263496 29.2143194042095
1.952680595790497 10.0057731347365 2.5182268652635003
27.4687731347365 5.953226865263495 8.644226865263498
30.0573194042095 28.5147731347365 23.9947731347365
18.9217731347365 0.00022686526349957603 9.5117731347365
4.180226865263499 13.2877731347365 10.846226865263496
19.7987731347365 13.346226865263496 15.4767731347365
15.6957731347365 4.714226865263498 20.422773134736502
25.2287731347365 14.538226865263503 1.8697731347364996
17.2297731347365 28.2967731347365 0.40568059579049986
3.5617731347365 10.9767731347365 16.3447731347365
18.3052268652635 13.0167731347365 13.4052268652635
20.837319404209502 8.822226865263495 13.1307731347365
17.9727731347365 25.1363194042095 12.4797731347365
28.3207731347365 28.9997731347365 27.2907731347365
12.767773134736501 19.9383194042095 25.696680595790497
8.935680595790501 20.4677731347365 4.594773134736501
22.1417731347365 9.386226865263502 29.2627731347365
25.2687731347365 12.4942268652635 14.9467731347365
30.602226865263496 10.8937731347365 5.1173194042095
1.0372268652634986 2.1802268652634993 24.867226865263497
23.236773134736502 32.1643194042095 28.764226865263502
11.644226865263498 18.4507731347365 26.2227731347365
21.378226865263507 19.8247731347365 10.1617731347365
15.0657731347365 5.6217731347365 21.1532268652635
3.9832268652634966 30.238773134736498 20.2103194042095
3.4352268652634947 7.885680595790504 20.7902268652635
1.7267731347365007 8.668773134736501 21.8167731347365
25.619773134736498 12.383319404209498 15.9387731347365
25.8442268652635 3.211226865263498 24.7613194042095
7.040773134736501 28.291226865263503 27.437226865263504
2.9372268652635043 8.8442268652635 8.5677731347365
21.2027731347365 0.04022686526349872 4.922226865263504
4.3397731347365 27.7157731347365 16.5823194042095
13.3687731347365 17.653680595790505 20.4178656736825
30.03568059579051 26.4963194042095 24.0347731347365
18.9187731347365 31.427773134736498 9.9602268652635
1.431226865263504 24.711226865263505 22.967226865263505
28.3173194042095 29.994773134736498 27.869773134736498
26.1737731347365 27.0672268652635 10.3142268652635
28.4662268652635 23.6737731347365 7.613773134736499
30.325319404209502 22.9117731347365 24.794773134736502
10.311773134736502 16.047226865263504 16.3397731347365
17.211226865263505 1.3022268652634992 1.8667731347364995
21.2527731347365 20.5557731347365 10.3172268652635
30.8413194042095 13.4362268652635 27.4657731347365
10.5552268652635 31.976226865263506 5.3987731347365
14.450319404209498 17.140226865263493 6.0957731347365005
20.7667731347365 2.4632268652635005 20.4302268652635
19.3417731347365 13.2177731347365 15.6627731347365
8.1877731347365 6.775319404209501 4.376226865263497
25.872773134736498 11.831226865263496 0.25422686526349736
30.4117731347365 6.9237731347365 30.0852268652635
7.235226865263499 7.1387731347365 20.467680595790497
14.1857731347365 29.301226865263494 30.7847731347365
15.688226865263495 31.5167731347365 27.0497731347365
29.337226865263496 0.9462268652635046 22.2417731347365
0.7716805957904995 15.4257731347365 22.0126805957905
7.030773134736501 16.6837731347365 15.685226865263495
16.663773134736502 15.534226865263498 11.4117731347365
11.9447731347365 25.351226865263506 26.988319404209502
6.8752268652635 13.674773134736501 16.9463194042095
30.40468059579051 19.214226865263505 20.471226865263496
13.522319404209501 12.8857731347365 16.8957731347365
11.7627731347365 24.431773134736503 9.963773134736499
2.850680595790493 8.167226865263501 23.000773134736498
4.788680595790495 19.945680595790506 26.3597731347365
2.0707731347365 30.765226865263493 20.5117731347365
31.1917731347365 3.968226865263496 12.3387731347365
10.1967731347365 25.819226865263495 10.2337731347365
13.2877731347365 32.1493194042095 22.876226865263497
16.5732268652635 12.251680595790504 19.768226865263493
3.8937731347365006 1.3267731347365004 14.648226865263503
10.459226865263496 23.0487731347365 15.164226865263501
26.6247731347365 0.2912268652635035 21.577226865263505
12.208226865263498 25.586680595790497 10.713680595790493
2.4732268652634986 17.833226865263505 11.340773134736502
16.8767731347365 5.0841343263175105 25.703319404209502
17.1197731347365 0.5886805957904926 28.9673194042095
0.8147731347364999 29.0107731347365 1.829134326317515
20.765226865263493 19.2813194042095 11.103226865263501
1.8992268652635005 8.069319404209498 11.9332268652635
17.995226865263497 7.9337731347365 10.998226865263497
32.1482268652635 31.6067731347365 21.3257731347365
17.0366805957905 5.915411943155505 1.9462268652635046
9.7592268652635 23.233773134736502 14.726680595790498
23.083226865263505 2.5697731347365007 8.769226865263498
30.2027731347365 5.866226865263499 22.7233194042095
29.5642268652635 23.0847731347365 7.3307731347365
29.4373194042095 24.785773134736502 6.3842268652635
0.6402268652635001 8.035226865263503 18.965226865263496
12.476319404209502 28.5282268652635 10.3167731347365
17.0732268652635 28.385226865263498 23.9797731347365
31.1123194042095 20.4417731347365 25.9327731347365
30.0547731347365 13.251226865263497 8.9787731347365
8.328773134736501 24.005865673682507 13.2867731347365
13.328226865263495 23.0367731347365 1.4447731347365007
10.791226865263503 1.334680595790502 26.7597731347365
2.870773134736501 10.007680595790504 4.447773134736501
11.609226865263501 23.496226865263502 18.9057731347365
24.5492268652635 13.940226865263504 20.1067731347365
30.242773134736503 22.369226865263506 19.583226865263505
8.516226865263498 8.165226865263499 25.699226865263505
7.1751343263175045 3.165773134736501 20.0437731347365
29.8427731347365 17.5487731347365 15.645226865263503
24.9847731347365 7.7727731347365 5.751773134736501
22.119319404209502 20.027226865263493 25.38368059579051
22.508226865263502 4.3087731347365 12.8722268652635
5.405226865263501 13.5107731347365 0.31422686526349963
26.0377731347365 1.6492268652635005 17.2167731347365
29.5983194042095 23.9717731347365 5.483226865263497
3.8872268652635 27.244773134736498 2.0082268652635022
21.6477731347365 1.1347731347365002 7.1052268652634964
17.7827731347365 28.7173194042095 1.3852268652634976
1.1566805957905046 10.1537731347365 7.7287731347365
3.9362268652634995 4.713773134736501 5.119226865263499
22.2907731347365 10.931226865263504 27.142226865263503
19.5147731347365 19.955226865263505 0.12268059579049861
