12.1857731347365 29.0397731347365 23.114226865263497
9.2907731347365 13.485226865263499 27.3393194042095
30.4217731347365 22.1907731347365 10.4272268652635
7.3496805957905025 14.905773134736501 8.5507731347365
17.4717731347365 8.300226865263504 4.286226865263501
14.206226865263496 8.0887731347365 22.9607731347365
14.293319404209502 17.8173194042095 2.4251343263175045
24.0807731347365 27.5827731347365 29.598226865263506
15.703773134736501 22.5993194042095 19.4602268652635
11.0427731347365 31.519226865263498 3.935680595790501
17.278680595790505 30.315226865263504 22.5107731347365
6.565773134736501 20.013226865263498 17.425226865263504
30.3807731347365 27.7727731347365 21.514226865263502
6.379773134736499 2.4961343263175024 21.8637731347365
23.3217731347365 13.515865673682498 7.9177731347365
31.3937731347365 22.9543194042095 24.358773134736502
14.362226865263501 0.5102268652634976 0.9272268652634992
19.3347731347365 12.1207731347365 30.1047731347365
6.359226865263501 25.7677731347365 31.7923194042095
19.908226865263494 6.739773134736501 24.1742268652635
27.0623194042095 10.098319404209501 24.788773134736502
17.7327731347365 14.6517731347365 6.5167731347365
23.8917731347365 31.4627731347365 16.057319404209498
31.5167731347365 8.145773134736501 25.260226865263498
26.372319404209502 6.595680595790498 16.710680595790507
12.152773134736501 10.453226865263495 13.1087731347365
1.3482268652634986 9.888226865263498 16.6977731347365
18.0717731347365 20.1977731347365 25.6307731347365
29.9637731347365 23.755226865263502 10.793226865263499
7.148680595790495 10.5942268652635 18.7193194042095
15.825773134736501 6.656226865263498 17.147226865263498
23.3407731347365 23.8947731347365 31.1293194042095
12.007226865263497 11.3147731347365 12.606226865263501
19.6503194042095 10.502680595790494 2.657680595790495
17.8517731347365 19.9633194042095 20.640134326317508
30.8807731347365 24.374226865263502 18.9662268652635
19.6797731347365 28.7927731347365 29.991226865263506
4.5212268652635 21.6517731347365 23.0747731347365
7.059226865263504 25.2402268652635 9.671226865263499
1.7957731347364998 10.4082268652635 29.7273194042095
22.7587731347365 26.622773134736498 12.635226865263498
30.0612268652635 6.847226865263501 14.173226865263501
9.188226865263495 24.022226865263498 20.5043194042095
18.221226865263496 22.788226865263503 13.868680595790494
5.800226865263504 21.6657731347365 25.044226865263504
12.546134326317514 12.7047731347365 13.6607731347365
9.549226865263499 6.995773134736501 2.2702268652635027
31.6463194042095 12.6547731347365 21.848226865263506
6.187226865263504 29.9153194042095 2.1537731347365003
19.500226865263507 17.934226865263504 6.9817731347365
13.935226865263495 6.0122268652635 1.458226865263498
19.883226865263502 19.0747731347365 10.1257731347365
5.001226865263497 6.146773134736501 15.5967731347365
25.3547731347365 21.7287731347365 2.0416805957904955
5.077226865263505 17.2747731347365 3.975680595790493
24.7252268652635 7.6377731347365 11.7207731347365
9.7397731347365 16.494226865263506 21.1717731347365
28.7557731347365 11.489226865263497 11.739226865263497
1.3727731347364998 13.563226865263495 10.058773134736501
23.276226865263503 0.9632268652635005 18.4907731347365
6.161865673682499 28.1987731347365 26.5993194042095
10.1222268652635 16.2967731347365 23.3057731347365
24.4857731347365 18.9267731347365 16.8977731347365
18.163226865263503 16.6547731347365 6.2657731347365
0.06468059579050589 28.697226865263495 4.0092268652635
9.147226865263498 9.717226865263498 7.1087731347365
17.6682268652635 8.2467731347365 12.629226865263497
22.1136805957905 8.0122268652635 0.8736805957905034
0.06368059579050112 27.6953194042095 14.0882268652635
7.8156805957904965 21.6742268652635 24.1557731347365
8.242773134736499 0.5442268652635036 13.828773134736501
8.8107731347365 15.7303194042095 14.766226865263498
26.7563194042095 15.6047731347365 11.683773134736501
31.5827731347365 22.1717731347365 6.013226865263498
24.611773134736502 5.276680595790495 4.293773134736501
19.801226865263494 4.8552268652634964 10.5227731347365
29.229226865263506 24.214226865263505 32.0907731347365
24.3017731347365 1.7916805957904955 9.321680595790497
11.7222268652635 5.2657731347365 15.9357731347365
11.6347731347365 3.949680595790497 27.431773134736503
24.9757731347365 6.663226865263503 18.6737731347365
21.5803194042095 27.76168059579051 26.142226865263503
9.7047731347365 16.4547731347365 6.610226865263499
10.4116805957905 11.575773134736501 10.7686805957905
18.2157731347365 26.279226865263503 26.6107731347365
5.660226865263503 19.2417731347365 31.0683194042095
23.6317731347365 4.3352268652635 29.2667731347365
18.8047731347365 20.3807731347365 29.995226865263497
14.9557731347365 16.4017731347365 25.202680595790497
22.8563194042095 0.2392268652634968 14.809226865263504
10.954680595790492 1.314680595790506 31.119773134736498
5.254773134736499 28.7037731347365 13.559226865263504
1.5337731347365011 8.982226865263499 29.4857731347365
25.4587731347365 12.2257731347365 19.999226865263502
6.049134326317514 26.485680595790498 14.574226865263505
27.2297731347365 22.1643194042095 0.514773134736501
30.77668059579051 10.5677731347365 29.339226865263505
23.3142268652635 19.297773134736502 18.76168059579051
32.114319404209496 6.741226865263499 31.799319404209502
18.996226865263502 21.9727731347365 22.062226865263504
18.4302268652635 21.9217731347365 24.5287731347365
7.475226865263501 23.7627731347365 29.2132268652635
31.6952268652635 14.3493194042095 23.355226865263496
23.9297731347365 28.4387731347365 18.454680595790506
10.618226865263502 19.587226865263496 13.3007731347365
25.675226865263504 1.0122268652635 0.7932268652634988
22.0372268652635 0.8226805957905015 20.5462268652635
22.1197731347365 28.9877731347365 23.185226865263495
24.1093194042095 18.4527731347365 15.9497731347365
10.808773134736501 17.5007731347365 1.7617731347365009
16.3397731347365 5.613226865263499 29.3273194042095
10.327226865263505 0.8792268652634974 4.3822268652634975
20.2137731347365 27.809773134736503 18.2527731347365
12.245226865263497 5.308226865263499 15.3717731347365
11.6477731347365 7.438226865263495 27.8213194042095
19.125226865263507 27.1152268652635 6.304680595790501
23.5927731347365 26.559226865263504 21.66068059579051
4.1662268652635035 17.7447731347365 24.7467731347365
22.8323194042095 12.603226865263501 8.919226865263504
5.067680595790506 0.290680595790505 2.802226865263499
11.798226865263501 2.658773134736501 5.785226865263503
2.2897731347364996 4.320319404209503 8.623680595790503
14.3047731347365 7.084226865263496 22.602226865263496
9.831773134736501 21.7057731347365 5.1952268652635
18.389226865263502 23.044226865263504 22.760226865263498
1.319226865263495 10.2592268652635 22.982226865263506
26.4967731347365 23.548226865263494 18.6047731347365
5.3382268652635005 9.176319404209497 31.7883194042095
1.556226865263504 27.382226865263497 23.244226865263506
12.109226865263501 27.578226865263495 17.300226865263504
24.2402268652635 14.372319404209502 30.873773134736503
5.3622268652635015 9.897226865263498 0.18822686526349486
11.639773134736501 30.3493194042095 25.5343194042095
8.0707731347365 7.280226865263501 3.6366805957904944
24.126226865263497 5.3962268652635 4.592226865263498
31.401319404209502 8.4037731347365 23.6772268652635
18.1622268652635 7.182226865263495 13.8907731347365
12.928226865263504 26.0163194042095 26.3417731347365
7.047226865263504 27.485319404209502 13.6237731347365
26.5157731347365 10.3107731347365 32.125319404209506
22.0267731347365 13.5977731347365 3.904226865263503
21.6303194042095 6.7642268652635025 0.9092268652634985
3.958226865263498 16.4187731347365 12.0426805957905
30.3883194042095 4.4452268652635 8.3937731347365
8.8472268652635 0.27222686526349804 18.1617731347365
28.0077731347365 31.568226865263505 17.542226865263494
20.2287731347365 13.156226865263498 5.586226865263498
0.38622686526350236 9.3547731347365 5.833226865263498
23.8703194042095 8.838773134736499 27.7403194042095
15.337319404209499 17.364680595790503 10.6917731347365
27.9677731347365 11.078226865263495 11.811773134736502
4.7102268652635 3.239226865263497 19.032226865263503
29.2867731347365 18.1757731347365 17.2872268652635
30.011226865263502 20.953226865263495 9.174773134736501
26.3937731347365 0.3297731347365005 24.569226865263495
9.8597731347365 21.4902268652635 2.6677731347364997
6.9017731347365 3.644680595790504 20.355680595790503
21.017226865263503 16.226226865263506 11.737680595790493
29.4437731347365 5.876773134736501 5.383319404209498
14.947226865263495 10.3547731347365 7.3917731347365
10.517226865263503 8.920226865263501 30.495773134736503
20.926226865263494 14.2337731347365 11.4997731347365
9.645773134736501 21.9627731347365 6.769226865263498
14.9237731347365 5.386226865263502 12.373226865263497
26.4127731347365 27.408226865263494 8.148226865263503
8.3842268652635 22.8623194042095 11.692680595790506
7.434226865263504 1.7116805957904973 14.3472268652635
31.4357731347365 25.099773134736502 7.344680595790493
4.697226865263495 18.9212268652635 12.3632268652635
8.2087731347365 10.171773134736501 5.869226865263499
19.3473194042095 28.121226865263502 17.713134326317515
4.839226865263498 26.2083194042095 5.3397731347365
10.200226865263495 0.5702268652634999 17.436680595790506
30.1327731347365 22.962226865263496 10.2977731347365
1.9172268652635012 12.860773134736501 4.1067731347365
7.421773134736501 1.7027731347364998 8.922226865263504
7.594226865263501 8.840226865263496 24.270319404209502
0.30722686526349463 16.7117731347365 19.196226865263505
29.828226865263495 25.902226865263493 12.203773134736501
22.7577731347365 2.6137731347364994 16.2727731347365
27.641134326317513 15.3527731347365 22.0817731347365
0.5237731347364996 2.103680595790493 30.0907731347365
28.555319404209502 1.2882268652635034 16.8442268652635
21.901226865263503 22.549319404209502 4.151680595790495
0.5082268652635022 27.5882268652635 15.4397731347365
26.045226865263494 8.681226865263504 10.090226865263496
17.3106805957905 19.2717731347365 14.828680595790502
23.9493194042095 17.248226865263497 15.0797731347365
11.561773134736502 30.497319404209502 8.3906805957905
23.1197731347365 8.549226865263499 3.630680595790494
8.6997731347365 17.000226865263507 8.016226865263498
11.136226865263502 9.3277731347365 29.3957731347365
23.013226865263498 2.0442268652635036 17.851226865263506
3.8172268652634997 25.369226865263506 27.5257731347365
30.065226865263504 29.2953194042095 21.852226865263496
27.715226865263496 24.3703194042095 7.1127731347365
20.300226865263504 3.6122268652635015 2.8752268652634996
17.4613194042095 0.17968059579050077 6.644226865263498
16.273226865263503 0.3882268652634977 20.0246805957905
15.8697731347365 14.0732268652635 15.052773134736501
12.6952268652635 7.322226865263495 23.5187731347365
26.340226865263496 7.295226865263501 9.517773134736501
21.1953194042095 14.8827731347365 10.993680595790494
22.4032268652635 5.037226865263499 25.4812268652635
1.1317731347365 5.7047731347365005 14.608680595790503
20.691226865263495 25.7867731347365 18.773226865263503
11.1143194042095 20.107226865263506 29.236680595790503
26.5927731347365 13.156226865263498 6.052226865263499
8.2626805957905 6.3337731347365 4.094226865263501
19.1527731347365 1.1916805957905012 14.136680595790494
17.0207731347365 23.491226865263506 6.191226865263495
9.139226865263502 28.4357731347365 8.040680595790505
21.7417731347365 18.9767731347365 31.860319404209502
10.8327731347365 26.6447731347365 25.855226865263496
8.3782268652635 5.3552268652634964 19.895226865263503
25.7597731347365 28.232319404209502 26.217226865263505
16.532226865263503 3.283773134736501 31.727773134736502
28.3813194042095 23.230773134736502 18.9062268652635
26.779226865263503 0.10922686526350134 22.1347731347365
22.1853194042095 26.5513194042095 3.813226865263495
14.7627731347365 27.6293194042095 23.288773134736502
19.3937731347365 7.8017731347365 29.3537731347365
24.3977731347365 12.7747731347365 3.8057731347364996
24.366773134736498 6.682226865263495 28.4517731347365
6.424226865263499 25.5407731347365 15.0062268652635
12.8717731347365 14.100226865263501 24.172226865263504
5.575773134736501 13.264226865263502 15.5057731347365
30.160226865263503 26.9433194042095 16.950319404209502
8.7437731347365 3.627226865263502 23.608773134736502
26.872226865263507 13.6157731347365 29.3917731347365
16.073680595790506 22.8917731347365 19.727226865263496
15.5867731347365 29.5607731347365 18.27368059579051
7.290680595790505 27.0217731347365 9.700226865263495
17.5612268652635 21.564773134736498 25.7167731347365
10.4147731347365 31.7593194042095 3.7877731347365007
1.3777731347365005 27.8547731347365 22.4637731347365
26.6687731347365 10.693680595790497 25.7907731347365
21.733773134736502 31.8207731347365 15.406226865263498
14.415226865263499 28.135226865263498 0.030226865263500713
0.2392268652634968 16.8412268652635 6.7472268652634995
8.328773134736501 2.2592268652635 14.2277731347365
23.654319404209502 9.474680595790502 27.733773134736502
5.953226865263495 29.566226865263495 13.709226865263496
12.749226865263502 19.349226865263496 16.113226865263506
32.01822686526349 18.0557731347365 14.462226865263496
30.780226865263494 24.855773134736502 12.717226865263498
20.5657731347365 21.9793194042095 3.346226865263496
23.3487731347365 4.3962268652635 5.6233194042095
11.7367731347365 18.718319404209502 19.454680595790506
19.7253194042095 6.1837731347365 30.268226865263493
17.553226865263504 27.675226865263504 12.325680595790502
2.4512268652635 31.119773134736498 4.421226865263499
0.5072268652634975 27.7363194042095 16.783226865263494
21.9667731347365 13.267773134736501 16.977773134736502
8.706680595790502 17.629226865263497 24.447226865263495
17.979226865263506 6.966680595790493 24.4477731347365
17.4842268652635 0.9976805957904986 6.246226865263502
6.4512268652635 10.473226865263499 29.2237731347365
7.546226865263499 28.583226865263505 22.930680595790506
2.2372268652635015 19.661226865263494 23.0337731347365
15.7012268652635 0.06568059579049645 1.8116805957905058
25.269680595790504 5.010680595790504 30.064773134736498
26.628226865263507 13.785319404209499 7.721226865263496
22.833865673682496 7.135226865263498 7.297680595790496
30.4633194042095 6.660226865263503 3.7347731347365
30.0063194042095 22.8737731347365 14.813319404209498
25.9032268652635 6.325773134736501 31.745773134736503
5.573680595790506 16.6937731347365 4.312226865263504
28.8397731347365 0.3232268652635 16.461226865263505
29.203226865263495 14.3472268652635 18.3382268652635
13.7687731347365 16.727773134736502 30.113773134736498
8.470226865263498 21.0267731347365 11.680773134736501
29.2547731347365 4.151680595790495 20.4782268652635
26.248773134736503 19.1618656736825 17.750226865263507
0.38022686526350213 26.233773134736502 15.5927731347365
15.700773134736501 18.251226865263497 29.9057731347365
19.0696805957905 27.717226865263505 25.5923194042095
2.7632268652634977 6.807226865263495 30.805773134736498
15.7132268652635 1.1586805957905 0.20222686526350486
3.8372268652634958 31.4827731347365 11.107226865263499
14.2667731347365 27.3547731347365 4.3966805957904995
13.546773134736501 10.6772268652635 2.517773134736501
6.4357731347365 8.45313432631751 11.209773134736501
31.311319404209502 25.268226865263493 23.3562268652635
14.3597731347365 18.927680595790505 9.607226865263499
28.654319404209502 10.156226865263498 13.523226865263503
29.858773134736502 16.433865673682504 15.133226865263502
5.243226865263502 26.0672268652635 3.7502268652634996
0.12368059579050339 5.8087731347365 27.2767731347365
23.0747731347365 31.4753194042095 28.949226865263505
2.9842268652635013 8.172226865263504 5.142773134736501
25.8412268652635 8.937226865263504 10.404226865263503
25.2607731347365 0.4512268652635001 10.746226865263502
18.1987731347365 15.353226865263501 6.502226865263502
5.8262268652635 9.587226865263496 15.6217731347365
13.115134326317502 10.723226865263499 12.8887731347365
8.043226865263499 5.743226865263502 4.729226865263499
14.5877731347365 23.895319404209502 11.059226865263504
9.9302268652635 30.433680595790506 2.5472268652635037
14.909226865263498 24.798226865263494 6.7622268652635
17.497226865263507 23.279865673682508 22.599226865263496
27.4507731347365 25.016226865263498 30.808773134736498
12.0477731347365 26.6943194042095 7.675226865263504
27.000773134736498 31.2657731347365 22.5717731347365
7.343226865263496 11.0667731347365 3.1287731347365
16.7097731347365 28.648226865263503 3.6622268652634986
26.870773134736503 1.816226865263495 20.77668059579051
3.2866805957905 25.6533194042095 21.7667731347365
10.3052268652635 19.7267731347365 11.849226865263496
18.6343194042095 26.660773134736502 8.849680595790502
18.3322268652635 21.5186805957905 24.973226865263506
12.309226865263504 19.6467731347365 21.0117731347365
12.706680595790502 22.9677731347365 31.098226865263506
15.8697731347365 0.49177313473649953 30.4187731347365
30.4127731347365 9.178226865263504 26.7347731347365
6.6976805957905015 24.799319404209502 15.590226865263496
26.886226865263502 3.553680595790496 14.6307731347365
29.5167731347365 19.0762268652635 21.3442268652635
23.464226865263505 21.6207731347365 24.2997731347365
6.249680595790494 12.466680595790493 5.904319404209499
22.6032268652635 31.892319404209502 21.2607731347365
3.735319404209502 14.443226865263505 29.1363194042095
14.1157731347365 26.305773134736498 24.6277731347365
20.1197731347365 6.027226865263501 25.873773134736503
22.2633194042095 3.3167731347365006 15.2697731347365
11.8992268652635 21.3897731347365 24.244773134736498
15.235773134736501 19.4392268652635 1.218226865263496
14.3932268652635 29.0333194042095 18.5347731347365
14.9437731347365 31.900226865263498 1.860226865263499
7.7597731347365 30.4877731347365 20.129680595790504
22.1823194042095 31.5083194042095 0.6136805957904983
8.4397731347365 21.503773134736498 10.9237731347365
14.8467731347365 6.993226865263502 3.735226865263499
25.626226865263497 5.355680595790503 16.164226865263494
22.431226865263504 19.703226865263495 21.0732268652635
19.8437731347365 9.095319404209501 28.499680595790508
14.4177731347365 29.5397731347365 18.158226865263494
12.9512268652635 11.4037731347365 25.682226865263495
28.275865673682503 11.352226865263496 2.154226865263503
31.523319404209502 29.126226865263497 25.526319404209502
7.885226865263498 31.757226865263497 14.229226865263499
1.6407731347365004 1.8017731347365 16.650226865263498
23.689773134736498 18.974773134736502 28.178226865263504
10.1252268652635 0.24968059579049395 18.6593194042095
8.274773134736499 29.6152268652635 9.5967731347365
32.1617731347365 29.130226865263502 4.878680595790499
7.546226865263499 18.756226865263493 24.7867731347365
24.3592268652635 18.9397731347365 2.4452268652635
22.9357731347365 18.6217731347365 30.2967731347365
13.869319404209502 15.839226865263498 24.4423194042095
31.3837731347365 16.4087731347365 5.754773134736499
23.4277731347365 3.897226865263498 29.7127731347365
15.2657731347365 31.211226865263505 10.495226865263497
20.081226865263496 7.319226865263495 17.4057731347365
6.916319404209499 21.5993194042095 28.672773134736502
7.7367731347365005 15.421773134736501 8.862226865263501
19.5672268652635 31.2547731347365 26.6003194042095
26.052319404209502 19.478680595790507 5.212680595790502
13.8147731347365 11.4587731347365 19.895226865263503
25.7677731347365 8.5127731347365 10.2012268652635
25.9446805957905 1.239680595790503 25.5063194042095
6.6097731347365 16.723226865263506 29.226865673682497
5.219773134736501 12.3157731347365 15.547226865263504
31.804226865263495 26.988319404209502 30.415680595790505
20.804226865263495 13.6922268652635 5.9237731347365
25.0642268652635 14.0797731347365 13.4937731347365
20.9212268652635 27.424319404209502 17.8257731347365
25.6883194042095 0.6112268652634967 28.126773134736503
32.0603194042095 13.922226865263504 23.639226865263502
6.3172268652635 21.9923194042095 4.501773134736501
26.3293194042095 19.65468059579051 9.928226865263504
8.968226865263496 28.4047731347365 9.672226865263504
4.8352268652635 21.5972268652635 17.8202268652635
18.232319404209502 15.7927731347365 0.9872268652635015
2.501773134736501 9.560226865263495 14.984226865263501
22.5867731347365 18.157226865263503 1.1807731347364996
12.3707731347365 21.068226865263505 8.0732268652635
9.1162268652635 6.630226865263502 2.636773134736501
11.529680595790495 9.9912268652635 31.6793194042095
17.9332268652635 18.3322268652635 30.6673194042095
2.7816805957905046 26.8387731347365 6.8567731347365
9.4807731347365 16.4017731347365 10.522226865263498
5.6862268652634995 16.8067731347365 2.141680595790504
18.8213194042095 23.9542268652635 27.3367731347365
9.1937731347365 16.053226865263504 21.0013194042095
1.410319404209499 3.495134326317512 20.989773134736502
31.5057731347365 15.653319404209501 25.123773134736503
30.9793194042095 27.774226865263493 14.2867731347365
19.052319404209502 27.648319404209502 5.4747731347365
14.482319404209502 28.6503194042095 1.8182268652635045
2.3202268652635 26.977773134736502 16.730226865263496
6.2367731347365005 25.5687731347365 4.8482268652634986
2.5217731347365007 13.7162268652635 3.252226865263502
27.50268059579051 30.934773134736503 17.7926805957905
21.046319404209502 23.486773134736502 9.8767731347365
30.3867731347365 11.2222268652635 29.266226865263498
1.289226865263501 11.269226865263498 24.1793194042095
0.06377313473650048 9.6907731347365 7.897226865263498
13.6987731347365 3.2436805957904937 20.7543194042095
16.9977731347365 11.706226865263496 22.8284119431555
13.803226865263504 15.2107731347365 15.9692268652635
13.870226865263497 22.63368059579051 28.3243194042095
10.3812268652635 25.806226865263504 31.9967731347365
10.4777731347365 10.4022268652635 16.260226865263498
26.7943194042095 6.328226865263495 22.6047731347365
10.0327731347365 8.488773134736501 16.753226865263507
6.187680595790496 16.6742268652635 3.299226865263499
11.7827731347365 27.211226865263505 17.8167731347365
13.529226865263503 14.0727731347365 0.08068059579049702
3.104226865263499 25.559226865263504 7.876226865263497
30.2687731347365 13.106226865263501 9.986226865263497
24.4143194042095 13.9437731347365 4.030773134736501
15.1467731347365 19.035226865263503 3.339226865263498
13.156226865263498 25.142319404209502 24.6947731347365
32.0103194042095 21.8323194042095 0.614680595790503
16.9577731347365 13.602226865263496 31.1823194042095
3.5427731347364997 4.566319404209498 8.6887731347365
9.8937731347365 4.259680595790499 24.738773134736498
25.5067731347365 3.7897731347364996 5.697773134736501
5.770773134736499 8.2317731347365 24.2273194042095
13.6927731347365 30.6497731347365 27.2827731347365
4.164226865263501 3.964226865263498 10.697226865263495
16.0167731347365 31.8207731347365 19.7547731347365
26.5407731347365 4.2176805957904975 10.519226865263498
22.601226865263506 21.3077731347365 19.594680595790507
30.730773134736502 23.7103194042095 23.956226865263496
27.2493194042095 10.1402268652635 1.2482268652634971
18.8737731347365 3.2287731347364996 19.034680595790505
21.021226865263493 0.9772268652634963 20.348226865263506
18.4122268652635 6.038680595790495 21.5767731347365
1.7802268652635007 1.9777731347365002 1.6467731347365007
1.0752268652634953 14.2607731347365 16.0167731347365
2.709680595790502 9.1567731347365 12.5997731347365
5.328773134736501 26.7563194042095 0.9432268652635045
15.5822268652635 6.673226865263501 1.8377731347364996
14.542226865263501 2.4547731347365005 23.3413194042095
2.1012268652634987 26.794773134736502 11.810319404209498
10.316226865263495 14.4557731347365 3.8102268652634947
9.410680595790495 17.0647731347365 29.7827731347365
19.6917731347365 4.5007731347365 9.433773134736501
18.483226865263497 22.769226865263498 22.2227731347365
11.9897731347365 29.8367731347365 26.7687731347365
4.2652268652635 30.455680595790497 31.255226865263502
27.3297731347365 24.785226865263503 29.812773134736503
25.111226865263497 27.349226865263496 14.444226865263495
8.6647731347365 5.135680595790504 26.7983194042095
13.7742268652635 15.116680595790498 23.3537731347365
22.0093194042095 17.7577731347365 15.0567731347365
22.218319404209502 10.5937731347365 22.027226865263493
19.3417731347365 16.5882268652635 12.357226865263499
9.843680595790502 16.2837731347365 21.7627731347365
20.6622268652635 19.4267731347365 10.1567731347365
27.291226865263503 16.442773134736502 1.4287731347365007
4.5737731347365 12.742226865263497 26.5773194042095
19.2727731347365 8.3157731347365 11.681226865263504
12.588680595790493 14.236226865263497 16.700226865263495
0.43122686526350407 25.2757731347365 2.4056805957905
5.3722268652634995 10.350226865263501 32.0507731347365
30.001773134736503 20.803226865263504 20.840680595790502
0.10177313473650074 17.866319404209502 21.1207731347365
3.5557731347364996 25.8613194042095 23.0437731347365
3.719773134736501 3.248226865263497 3.232680595790498
7.847773134736499 22.003319404209503 26.0087731347365
15.147226865263498 5.617680595790503 2.117680595790503
15.3632268652635 16.0407731347365 25.749226865263502
28.010226865263498 30.3237731347365 17.814319404209503
16.9797731347365 29.0547731347365 13.234680595790493
15.703226865263495 23.5912268652635 18.9417731347365
2.3307731347365 12.023773134736501 5.2147731347365
4.685226865263495 17.1147731347365 13.2697731347365
26.3293194042095 16.139226865263502 25.209226865263496
15.8757731347365 26.3987731347365 23.5457731347365
17.220226865263506 18.500226865263507 12.738773134736501
13.6982268652635 11.357134326317507 25.6447731347365
12.9467731347365 28.464680595790497 18.616226865263506
8.8647731347365 4.8747731347365 8.0552268652635
11.915680595790505 16.3197731347365 11.915319404209502
9.8907731347365 25.727773134736502 25.616319404209502
26.281680595790505 23.4212268652635 30.6973194042095
22.447226865263495 8.5732268652635 28.6767731347365
19.6032268652635 11.769226865263498 29.7057731347365
22.7707731347365 14.060226865263495 31.423226865263494
26.5243194042095 15.3517731347365 11.584773134736501
25.7567731347365 10.4027731347365 31.6643194042095
0.4512268652635001 17.8417731347365 20.735226865263506
29.7563194042095 17.011226865263502 0.47022686526349844
7.511773134736501 9.839680595790497 23.538773134736502
28.2777731347365 30.5887731347365 8.1862268652635
31.8187731347365 13.812226865263504 10.0737731347365
19.3532268652635 27.663226865263503 6.397226865263498
25.9542268652635 0.2972268652635037 23.0667731347365
27.3073194042095 5.519226865263498 3.8382268652635005
16.874226865263502 12.5217731347365 4.009680595790499
24.564319404209503 8.5937731347365 31.5983194042095
22.605773134736502 22.7143194042095 14.053226865263504
23.0217731347365 1.2436805957904937 14.577680595790497
2.6122268652635015 2.8837731347365008 22.637226865263493
23.092226865263505 9.8322268652635 6.9146805957905
9.485773134736501 20.0247731347365 1.7966805957905052
7.430226865263499 28.491226865263506 10.0737731347365
8.650226865263498 20.0247731347365 11.337680595790502
6.2132268652635005 30.0487731347365 0.7482268652634971
15.920226865263494 30.3363194042095 28.3957731347365
20.163773134736502 8.112226865263501 18.6772268652635
3.2597731347365 30.6853194042095 30.184773134736503
4.8683194042094975 19.121226865263502 30.203226865263495
18.4087731347365 16.267226865263503 1.1772268652634992
18.3352268652635 0.43822686526349486 26.6823194042095
13.776226865263503 10.369773134736501 25.330226865263505
12.9117731347365 22.4067731347365 9.536226865263501
10.601680595790498 16.6967731347365 11.023226865263503
30.9647731347365 22.989226865263497 23.0907731347365
9.3082268652635 20.4047731347365 3.3893194042094983
9.149134326317508 26.1037731347365 30.233226865263497
6.254773134736499 30.6943194042095 7.974226865263496
29.2747731347365 8.642319404209498 26.831226865263496
8.8262268652635 11.124226865263502 22.404226865263503
18.0047731347365 27.4127731347365 25.931226865263504
18.092226865263505 17.1577731347365 1.9363194042095024
25.375773134736498 17.1737731347365 30.0372268652635
0.5277731347365009 18.8993194042095 2.6407731347365004
13.892773134736501 29.5047731347365 18.254226865263497
10.531226865263498 19.407226865263503 28.331319404209502
4.0717731347365 4.494226865263499 10.0427731347365
18.5342268652635 20.218680595790502 21.1907731347365
23.688226865263495 17.6527731347365 16.6652268652635
3.925226865263504 29.482226865263506 12.767773134736501
2.7622268652635 25.355226865263496 13.207680595790492
26.8597731347365 0.9636805957904926 6.8292268652635
16.4542268652635 4.6577731347365 30.333226865263505
10.767226865263503 31.9146805957905 5.026226865263503
17.3167731347365 22.329680595790506 6.570680595790506
21.667226865263494 5.050773134736501 15.261319404209498
11.884680595790499 3.6277731347365005 29.1862268652635
14.0182268652635 25.7037731347365 24.9362268652635
1.830680595790497 10.469865673682506 24.891680595790504
24.2282268652635 10.989226865263497 23.0637731347365
28.242226865263497 17.9207731347365 28.2907731347365
15.1772268652635 31.6723194042095 15.870226865263497
23.5177731347365 27.1337731347365 21.9572268652635
0.3362268652634981 13.592226865263498 16.602773134736502
19.7273194042095 15.9022268652635 12.912226865263499
23.3117731347365 9.175226865263504 5.699226865263505
8.3457731347365 16.842134326317506 9.618319404209497
14.4577731347365 22.757226865263497 0.8592268652635013
27.9717731347365 5.2287731347365 22.768226865263493
23.7447731347365 20.882134326317512 6.608226865263497
9.208226865263498 7.8902268652635 2.8052268652634993
24.638226865263498 26.999226865263502 1.209680595790502
26.2467731347365 14.777773134736501 20.712226865263496
17.476226865263506 21.7432268652635 24.5312268652635
8.4107731347365 13.255226865263502 0.8426805957904975
20.221226865263496 9.036226865263501 18.26168059579051
26.0827731347365 2.1832268652634994 0.7582268652635022
14.613773134736501 25.0937731347365 21.355773134736502
4.692680595790506 13.4037731347365 31.275226865263498
20.3967731347365 6.1117731347365005 25.203226865263495
18.9797731347365 21.3843194042095 1.3242268652635047
7.658226865263501 30.1347731347365 19.0227731347365
25.9062268652635 24.9027731347365 10.627680595790494
3.9106805957904953 6.297226865263504 7.818680595790497
17.5197731347365 17.669773134736502 3.6082268652634966
11.5657731347365 1.9577731347365006 29.5312268652635
12.194226865263495 7.4657731347365 22.524226865263493
0.1303194042094944 7.7247731347365 25.9153194042095
28.631226865263493 1.2362268652634967 4.878319404209503
24.4797731347365 20.0557731347365 2.7302268652634964
25.068226865263505 8.292226865263501 12.299773134736501
15.1342268652635 13.0917731347365 3.0842268652634957
20.4067731347365 30.41668059579051 31.867226865263497
11.849226865263496 10.994773134736501 11.0762268652635
17.288226865263503 6.7347731347365 2.6282268652634997
21.8987731347365 17.8167731347365 16.4247731347365
2.252680595790494 25.863226865263506 29.4902268652635
28.678680595790496 14.1317731347365 17.3737731347365
5.876773134736501 16.856680595790507 18.7902268652635
10.3417731347365 21.4087731347365 6.438680595790501
4.331680595790502 17.554226865263495 29.991226865263506
7.924226865263499 5.1257731347365 0.6836805957905057
4.661226865263501 16.440226865263504 11.786226865263501
29.336226865263505 15.8637731347365 16.155319404209504
25.0867731347365 13.516226865263498 2.9132268652635034
11.453773134736501 3.8137731347365005 12.4457731347365
8.922680595790496 30.730773134736502 31.666773134736502
19.141226865263498 3.3787731347365 29.5363194042095
8.540226865263499 29.372773134736498 19.0167731347365
15.4727731347365 28.149226865263493 18.532226865263503
15.370680595790503 2.6727731347365005 26.517319404209502
27.0637731347365 18.6742268652635 9.036319404209504
1.2146805957904974 4.9747731347365 15.328773134736501
10.388865673682503 31.456680595790502 24.461680595790497
7.6922268652635 0.0512268652634944 27.113773134736498
31.5717731347365 1.7067731347365012 7.174773134736501
2.2622268652635 12.5377731347365 26.0247731347365
3.4237731347365 0.8622268652635015 11.397226865263498
28.6982268652635 18.5393194042095 27.501865673682502
15.7537731347365 4.282226865263503 12.7477731347365
29.3202268652635 27.1293194042095 19.5837731347365
20.2597731347365 29.4877731347365 30.4113194042095
12.7267731347365 23.8183194042095 15.3247731347365
25.507226865263497 12.7192268652635 29.002226865263502
6.886773134736501 31.4993194042095 6.799680595790505
22.0637731347365 26.035773134736502 13.8527731347365
27.4778656736825 0.225226865263501 7.7642268652635025
19.803226865263504 17.1147731347365 6.1392268652635025
3.6297731347364994 1.7397731347365006 12.833226865263498
13.8142268652635 5.053226865263504 6.0647731347365
15.088319404209503 11.2802268652635 0.07477313473649971
29.2897731347365 31.175773134736502 16.877226865263502
21.0433194042095 11.9542268652635 0.9467731347364996
20.086226865263505 17.011226865263502 6.8722268652634995
21.4193194042095 18.2327731347365 6.591226865263501
30.9057731347365 5.934773134736501 5.9562268652634955
8.755226865263502 9.4747731347365 15.894226865263498
16.5702268652635 31.0513194042095 23.7127731347365
31.3502268652635 12.0807731347365 16.231680595790507
7.2437731347365 5.834226865263496 4.1167731347364995
30.018226865263493 27.6153194042095 29.311773134736498
1.9842268652635013 2.932680595790501 9.0007731347365
15.0777731347365 3.181680595790496 25.902226865263493
10.263226865263498 16.4673194042095 1.046773134736501
16.215680595790502 8.1582268652635 23.928773134736502
22.7217731347365 8.510226865263498 2.8557731347365003
14.288226865263503 23.399226865263493 2.9196805957904957
16.8857731347365 23.1587731347365 8.665226865263499
23.2252268652635 25.927773134736498 12.2742268652635
7.4746805957905025 15.892226865263503 17.164226865263494
10.33413432631751 15.879226865263497 21.164226865263494
2.1182268652635017 31.303773134736502 5.1736805957905005
29.4493194042095 22.9937731347365 27.0117731347365
27.5207731347365 31.324680595790497 8.2367731347365
2.6332268652635022 14.1907731347365 26.914226865263494
2.356134326317516 28.386226865263502 23.6357731347365
0.8987731347364996 29.4827731347365 18.387226865263493
11.376226865263497 2.351680595790498 22.2707731347365
22.5943194042095 4.008773134736501 17.5897731347365
30.3393194042095 26.7783194042095 2.7546805957905036
7.4627731347365 23.0267731347365 27.5257731347365
21.1207731347365 22.9577731347365 30.236773134736502
31.142319404209502 4.935319404209498 7.025226865263498
19.253226865263507 1.8422268652634983 13.604319404209502
23.7647731347365 13.9927731347365 31.0373194042095
11.4107731347365 20.5717731347365 29.507865673682502
6.431773134736501 5.355680595790503 19.5683194042095
2.6932268652635045 19.9407731347365 7.8752268652635
6.605680595790503 21.946226865263505 18.8787731347365
13.7277731347365 17.708226865263505 10.077226865263505
20.364773134736502 6.977680595790503 24.3502268652635
24.2587731347365 9.513226865263498 28.3447731347365
3.4137731347365 20.6973194042095 22.940226865263504
31.250226865263507 28.5247731347365 4.685226865263495
6.868226865263502 28.935226865263495 22.7167731347365
14.110773134736501 7.438226865263495 23.0887731347365
20.8087731347365 29.7373194042095 23.4617731347365
26.928773134736502 8.0576805957905 10.919226865263504
13.0287731347365 16.806226865263504 11.924226865263499
22.389319404209502 13.7607731347365 4.912773134736501
26.7317731347365 29.230680595790503 7.1797731347365
31.061773134736498 24.363319404209502 20.086680595790497
18.5897731347365 17.4512268652635 6.0237731347365
13.8657731347365 20.3297731347365 8.453226865263495
30.392226865263503 28.7467731347365 21.1377731347365
9.360226865263499 24.3472268652635 30.8537731347365
10.5797731347365 17.144226865263498 12.7502268652635
4.8722268652634995 17.6523194042095 13.4722268652635
17.723226865263506 17.251226865263497 6.0717731347365
4.275226865263498 3.2812268652634984 9.8367731347365
13.196226865263505 7.5647731347365 16.5457731347365
11.6832268652635 28.9477731347365 23.1783194042095
15.0377731347365 6.662226865263499 7.294226865263504
31.1053194042095 26.1747731347365 25.690226865263504
20.5717731347365 18.723226865263506 24.212226865263496
3.6602268652635033 9.328226865263495 8.5327731347365
14.693226865263505 28.2237731347365 4.6312268652635
17.4437731347365 9.241773134736501 13.746226865263502
8.419226865263504 22.6307731347365 11.1637731347365
12.077226865263505 26.956319404209502 13.1192268652635
5.587226865263496 31.5467731347365 24.913773134736502
17.5912268652635 28.0717731347365 30.3627731347365
26.562226865263504 23.108773134736502 30.753226865263507
15.870226865263497 28.160773134736502 18.357226865263506
2.817680595790506 12.678226865263504 11.657226865263503
22.0347731347365 29.3887731347365 23.9857731347365
19.6182268652635 26.5757731347365 7.214226865263498
31.369319404209502 23.8547731347365 11.8827731347365
7.5002268652635 2.201680595790492 9.434226865263504
27.285773134736502 8.882680595790504 15.0157731347365
27.7667731347365 23.0857731347365 17.9437731347365
7.126226865263497 32.004773134736496 7.5016805957905035
25.745226865263497 27.883226865263502 24.345226865263506
9.4692268652635 23.7657731347365 30.857226865263506
26.0747731347365 27.9527731347365 15.867226865263497
1.654226865263503 2.6137731347364994 1.3792268652634974
6.578319404209498 8.604226865263499 23.922226865263504
15.2832268652635 26.553773134736502 23.4782268652635
21.9763194042095 3.3466805957905024 10.116680595790498
20.1437731347365 10.3977731347365 22.7407731347365
22.7567731347365 22.6367731347365 9.395226865263503
20.0317731347365 27.0113194042095 5.4267731347365
0.8767731347365011 8.721226865263496 18.6517731347365
8.483226865263497 17.6017731347365 28.6987731347365
26.167226865263494 30.753226865263507 23.0377731347365
5.761773134736501 28.0087731347365 0.29568059579050043
4.062773134736501 30.13368059579051 30.2927731347365
0.9822268652634989 30.471226865263496 2.9622268652634958
31.4217731347365 0.7772268652635006 30.9763194042095
27.5912268652635 15.9817731347365 1.5152268652635001
1.2902268652634987 28.1493194042095 0.11322686526349912
22.0123194042095 15.187680595790496 19.9122268652635
14.1407731347365 14.4447731347365 0.7642268652635025
12.319226865263495 27.3387731347365 13.620226865263497
24.9873194042095 14.575319404209498 17.9233194042095
23.768226865263493 3.6247731347365004 17.655226865263494
23.2567731347365 22.1152268652635 23.476226865263506
14.724226865263496 28.8533194042095 18.016226865263498
31.6373194042095 1.9762268652634987 2.6997731347364997
3.0016805957905035 9.764680595790495 2.1897731347365
30.306226865263504 2.3872268652635 26.7217731347365
13.3117731347365 23.8047731347365 10.651134326317504
19.843226865263496 23.5597731347365 26.4236805957905
8.7197731347365 23.7387731347365 29.8987731347365
24.1447731347365 0.7392268652634968 11.0357731347365
22.7777731347365 4.232680595790498 30.1997731347365
24.645319404209502 5.251226865263497 5.097773134736499
26.854226865263506 14.1552268652635 20.1403194042095
9.618226865263502 31.2467731347365 1.2826805957904952
7.7622268652635 2.1162268652634992 8.232226865263499
8.8717731347365 13.3407731347365 29.9147731347365
4.2842268652634985 28.8377731347365 13.418680595790505
5.1312268652635 22.3103194042095 18.8737731347365
6.705226865263505 20.983226865263497 20.242226865263497
19.6447731347365 28.800773134736502 16.9617731347365
8.981319404209504 8.3477731347365 14.4137731347365
12.834226865263496 23.9437731347365 28.0373194042095
13.420226865263501 20.1892268652635 20.296319404209502
20.503319404209503 17.9937731347365 23.956680595790502
18.0097731347365 22.206226865263496 8.327226865263505
17.987680595790508 29.0217731347365 13.9082268652635
18.3592268652635 10.904226865263503 24.0497731347365
14.836226865263498 27.8777731347365 5.132134326317512
20.629226865263497 12.764319404209498 12.6267731347365
16.8087731347365 2.3352268652635004 12.7317731347365
19.274226865263493 23.7743194042095 22.1347731347365
3.3792268652634974 25.745773134736503 26.3823194042095
1.5892268652634982 11.2517731347365 25.4157731347365
24.010680595790504 27.2132268652635 3.905773134736501
30.613226865263506 6.517680595790495 31.989773134736502
12.1667731347365 18.602773134736502 15.3167731347365
12.3867731347365 10.957680595790492 27.0827731347365
3.496680595790494 5.510226865263498 9.7787731347365
17.4662268652635 22.2167731347365 22.6003194042095
13.271319404209503 16.887226865263493 22.7077731347365
22.291226865263503 8.2397731347365 3.053226865263504
31.7047731347365 25.1003194042095 23.5727731347365
32.0707731347365 27.985226865263506 25.726680595790498
25.0216805957905 20.5897731347365 1.2587731347365008
17.2607731347365 25.9157731347365 27.061773134736498
20.622226865263507 28.059226865263504 23.2203194042095
26.7253194042095 28.7943194042095 7.289226865263501
30.1678656736825 2.2513194042095 11.505226865263502
2.8877731347365003 20.5492268652635 13.7217731347365
26.305319404209502 27.9487731347365 8.0677731347365
27.8327731347365 5.5547731347365 22.014226865263502
20.151226865263503 19.7457731347365 11.4767731347365
15.055319404209502 4.611226865263497 7.581773134736501
30.7423194042095 1.485773134736501 27.4493194042095
11.4127731347365 18.9873194042095 28.078319404209502
21.405226865263494 15.2427731347365 26.169226865263504
23.7737731347365 12.959226865263496 30.5127731347365
0.8742268652635019 5.565773134736501 12.4517731347365
8.040226865263499 7.780226865263501 13.3112268652635
28.5342268652635 23.5437731347365 26.041773134736502
24.187773134736503 19.030226865263494 11.2102268652635
2.8377731347364996 25.5757731347365 27.498773134736503
10.4617731347365 24.333226865263505 15.4632268652635
30.745773134736503 4.9177731347365 17.0957731347365
23.4907731347365 4.189680595790506 28.867773134736503
18.920226865263494 10.6372268652635 5.6592268652634985
26.488773134736498 14.8917731347365 23.2903194042095
23.824226865263505 15.752226865263502 28.3537731347365
21.586226865263505 7.1827731347365 1.969773134736501
9.502680595790494 17.579680595790506 24.179226865263495
13.7347731347365 25.245773134736503 25.2717731347365
7.828226865263495 23.249226865263502 28.735226865263506
0.7716805957904995 29.023319404209502 27.0103194042095
19.5277731347365 26.1633194042095 8.169226865263504
11.1832268652635 26.9602268652635 26.861226865263497
1.9946805957904985 14.020226865263503 0.9367731347364998
25.554226865263495 4.699226865263505 15.540226865263499
22.9727731347365 19.273226865263503 26.8382268652635
0.07877313473650105 4.425226865263504 12.818226865263505
21.633226865263502 12.286226865263501 31.375319404209502
12.544226865263504 16.310226865263495 11.529226865263503
30.617773134736503 5.0246805957905 19.977226865263496
7.4487731347365 11.337773134736501 2.6836805957905057
3.0152268652635 8.6417731347365 3.5102268652634976
16.6032268652635 0.252226865263502 18.9513194042095
30.7753194042095 2.3847731347365 21.154226865263503
23.709319404209502 5.0142268652635025 5.1372268652635
31.057226865263495 7.7592268652635 21.797773134736502
5.7302268652634964 14.418680595790505 8.498680595790503
9.592226865263498 15.800226865263504 19.2957731347365
17.895226865263503 13.449226865263505 15.2682268652635
1.2002268652634953 3.0276805957904998 0.7936805957905051
19.459226865263496 21.6967731347365 6.816773134736501
3.7237731347365006 18.7217731347365 29.7837731347365
25.9113194042095 25.912865673682504 7.900680595790504
16.041226865263503 17.8957731347365 3.0152268652635
16.941226865263495 20.7837731347365 26.0603194042095
26.680319404209502 5.306226865263504 10.2207731347365
27.7067731347365 21.935226865263495 14.8167731347365
7.901319404209499 1.4192268652635036 13.9617731347365
18.273226865263503 25.3227731347365 1.9192268652635036
26.7403194042095 29.8682268652635 7.498773134736501
17.512226865263493 21.7467731347365 8.3722268652635
1.758319404209498 28.544680595790496 17.612680595790508
25.0792268652635 14.4727731347365 14.548226865263501
19.149226865263493 24.245226865263497 26.9242268652635
8.990226865263502 2.5132268652634977 1.7567731347365
29.5893194042095 31.501773134736503 1.1576805957904952
28.0517731347365 29.6497731347365 7.174773134736501
21.104226865263506 8.231226865263501 1.529680595790495
14.9107731347365 24.550773134736502 6.325226865263495
22.775226865263498 24.300773134736502 17.723226865263506
7.303226865263504 30.310226865263495 27.4087731347365
15.299773134736501 23.958226865263505 30.899226865263493
15.8213194042095 30.705226865263505 11.588773134736499
15.313226865263495 7.578680595790502 16.506773134736502
18.014226865263502 15.417226865263501 7.245226865263497
6.150680595790504 5.2572268652634975 26.0306805957905
4.035226865263503 10.774773134736499 5.8727731347365
26.824865673682496 15.297680595790496 2.8356805957904925
3.7402268652635016 8.461226865263498 11.554226865263495
13.2857731347365 27.886226865263502 12.745226865263497
23.7267731347365 26.690226865263504 20.4907731347365
26.4597731347365 1.3707731347365009 26.4692268652635
29.3327731347365 28.5663194042095 30.0797731347365
22.357319404209502 12.530319404209504 3.708226865263498
17.714226865263505 16.3797731347365 20.6007731347365
2.5127731347365003 3.434226865263504 24.7847731347365
16.1017731347365 27.9242268652635 23.146226865263493
30.9647731347365 21.3996805957905 4.639773134736501
17.5907731347365 2.6767731347365 28.997773134736498
8.725226865263501 23.276226865263503 15.4877731347365
19.5757731347365 11.487319404209504 28.764226865263502
4.745226865263497 14.3017731347365 17.4867731347365
22.129226865263497 13.870226865263497 0.3742268652635019
16.190226865263504 19.050680595790496 29.616773134736498
28.5603194042095 18.9087731347365 27.8763194042095
15.2977731347365 5.633773134736501 1.0967731347365
1.556226865263504 18.935226865263495 21.2012268652635
6.3507731347364995 8.0377731347365 11.5767731347365
5.191773134736501 24.398226865263503 3.1326805957905037
17.2077731347365 4.0897731347365 30.238773134736498
16.3652268652635 8.238680595790498 24.783226865263494
30.5762268652635 5.293773134736501 7.623226865263497
13.5917731347365 31.5347731347365 11.1342268652635
25.5437731347365 13.498226865263497 7.4277731347364995
14.559773134736501 23.9817731347365 4.751773134736501
32.1097731347365 0.904226865263503 31.9937731347365
8.4877731347365 4.216773134736501 19.1643194042095
26.800226865263504 24.077680595790497 8.4362268652635
13.877319404209498 0.2486805957905034 16.182226865263495
29.061319404209502 5.7502268652635 31.260226865263498
12.6897731347365 12.9457731347365 17.5762268652635
17.8173194042095 6.193680595790497 24.727773134736502
14.2877731347365 29.0177731347365 28.087226865263496
8.6897731347365 12.3517731347365 21.1487731347365
3.130226865263502 23.4157731347365 13.5516805957905
17.1087731347365 32.0507731347365 19.3867731347365
22.029226865263503 26.059773134736503 3.340680595790502
10.715773134736502 19.988319404209502 2.3752268652634996
25.018226865263493 1.8087731347364997 10.988773134736501
27.0763194042095 20.6247731347365 23.2872268652635
18.934226865263504 7.127226865263502 24.133226865263502
18.3903194042095 27.2437731347365 12.205226865263505
3.3357731347365007 18.2387731347365 3.7996805957905053
9.9452268652635 13.740680595790494 26.1683194042095
31.977773134736502 18.6287731347365 13.006319404209503
4.913226865263503 31.300773134736502 7.394680595790504
17.2437731347365 7.206773134736501 3.3692268652634993
24.6883194042095 13.1447731347365 4.316226865263495
3.4972268652634995 3.3823194042095004 20.950319404209502
1.756680595790499 5.406226865263498 28.2162268652635
30.0343194042095 6.729226865263499 13.075773134736501
2.684773134736501 27.3082268652635 6.365680595790494
24.6683194042095 9.921319404209502 21.025226865263498
22.458226865263505 7.504773134736499 7.315773134736501
2.444226865263495 14.3537731347365 11.8237731347365
13.008680595790494 27.8307731347365 0.21322686526350054
27.9297731347365 11.2307731347365 2.4137731347365
1.5727731347365008 8.0486805957905 18.7757731347365
11.808773134736501 23.500226865263507 17.8477731347365
0.07322686526349997 13.509319404209503 21.8607731347365
