22.8347731347365 16.8597731347365 21.631226865263493
13.862226865263501 13.882226865263497 28.218319404209502
31.8517731347365 23.3427731347365 16.8777731347365
24.9477731347365 15.014319404209498 31.560226865263495
8.4057731347365 23.584319404209502 15.5107731347365
3.276226865263503 12.9847731347365 5.4587731347365
32.0007731347365 25.8563194042095 29.375773134736498
17.993680595790508 28.241773134736498 13.889226865263502
15.923226865263494 4.4452268652635 6.147226865263498
20.2102268652635 26.498680595790503 0.3927731347365011
27.0197731347365 9.799773134736501 29.8357731347365
3.7512268652634972 2.3007731347365006 14.463680595790493
12.139773134736501 26.4703194042095 7.0577731347365
2.1532268652634983 15.892226865263503 20.3887731347365
20.8077731347365 23.208226865263505 18.974226865263496
29.958226865263505 1.626773134736501 16.946226865263505
29.132226865263497 30.736773134736502 3.0311343263175132
24.908226865263494 13.4487731347365 20.4987731347365
2.2002268652634953 20.8973194042095 0.6566805957905046
4.6737731347365 14.6963194042095 29.699226865263505
14.363773134736501 28.815773134736503 29.0822268652635
8.981680595790493 0.7657731347365004 17.6717731347365
28.058773134736498 28.3863194042095 18.26768059579051
13.043773134736501 6.0997731347365 13.3807731347365
6.032226865263503 25.9143194042095 1.3566805957904933
24.8957731347365 27.814773134736498 13.639319404209498
1.455680595790497 0.27768059579049975 3.3842268652635
16.428226865263504 24.471319404209503 16.7243194042095
3.989226865263497 1.9742268652634962 30.565773134736503
28.6337731347365 0.18922686526349963 28.343319404209502
23.899226865263493 1.6396805957904945 15.3297731347365
17.2037731347365 27.4993194042095 14.3587731347365
10.9452268652635 25.140226865263493 28.099226865263496
10.097680595790493 19.0107731347365 20.4357731347365
25.6587731347365 13.8232268652635 30.172226865263504
24.3593194042095 2.0431343263175137 15.549226865263499
26.107226865263506 2.6256805957904987 16.3037731347365
10.7087731347365 29.997773134736498 13.0007731347365
24.462226865263496 29.4787731347365 0.7016805957904921
20.253773134736498 30.114773134736502 25.9893194042095
2.621226865263502 24.251226865263497 23.1952268652635
23.4583194042095 31.3337731347365 14.725226865263501
15.211226865263498 31.6883194042095 21.7053194042095
20.8127731347365 2.400226865263498 2.6822268652634946
12.353226865263501 16.7767731347365 28.2867731347365
23.5673194042095 21.440226865263504 0.03768059579050487
27.5923194042095 2.748226865263497 4.732680595790498
10.802773134736501 5.3292268652635 23.1887731347365
17.0227731347365 2.760680595790504 16.1556805957905
24.9507731347365 1.4182268652634988 16.1137731347365
19.996226865263502 4.192680595790506 0.26077313473649966
9.852226865263496 27.7827731347365 8.104680595790498
7.3892268652635025 9.700773134736501 28.268226865263493
8.017773134736501 28.811773134736498 23.1267731347365
26.8377731347365 31.6563194042095 26.2333194042095
18.6023194042095 17.1207731347365 12.0517731347365
18.0017731347365 6.647226865263498 0.5987731347365006
5.863680595790498 29.736773134736502 27.572226865263495
3.136319404209498 3.2237731347365006 5.3793194042095
5.786226865263501 11.7207731347365 27.516226865263498
22.9163194042095 0.6442268652634979 21.253226865263507
28.554226865263495 6.418226865263499 23.845226865263506
7.9017731347365 26.7957731347365 11.0852268652635
22.450319404209502 6.2257731347364995 18.4183194042095
13.7117731347365 31.930773134736498 4.685319404209498
6.9047731347365 23.5522268652635 2.5623194042095
0.7966805957905052 1.6597731347365006 11.008680595790494
0.16322686526350338 8.8567731347365 26.048226865263494
10.943226865263505 18.985226865263506 20.4367731347365
29.0713194042095 15.5007731347365 3.0992268652634962
9.4662268652635 10.3167731347365 29.9687731347365
12.2622268652635 23.6397731347365 32.162865673682504
17.163226865263503 6.905773134736501 31.2617731347365
16.5642268652635 2.3072268652634946 8.425226865263504
26.5727731347365 31.657226865263503 16.5297731347365
29.5552268652635 14.740319404209497 11.2712268652635
29.494226865263506 27.200226865263495 12.2072268652635
28.648319404209502 3.117680595790503 1.7947731347365004
18.2397731347365 24.9657731347365 5.1257731347365
30.9392268652635 15.115226865263502 7.674226865263499
18.4657731347365 28.700319404209502 25.800773134736502
10.907226865263503 2.384680595790499 4.894680595790504
4.341773134736501 17.897226865263498 28.916226865263503
29.9203194042095 21.985680595790498 12.046773134736501
17.930319404209502 7.024773134736501 23.864226865263497
26.107680595790498 2.3232268652635 21.9917731347365
1.6067731347364997 30.1093194042095 21.3737731347365
4.021773134736501 23.1617731347365 19.8867731347365
12.016226865263498 4.933226865263499 30.2147731347365
14.223226865263499 6.690226865263504 5.9587731347365
1.5617731347364998 19.7497731347365 3.6627731347365007
22.050226865263504 22.7943194042095 11.121226865263502
6.6862268652634995 12.2437731347365 18.1682268652635
27.891226865263498 31.363319404209502 25.9667731347365
25.4903194042095 27.405226865263494 2.863226865263499
3.2362268652634967 12.456226865263496 5.651226865263503
8.8962268652635 19.291773134736502 6.2072268652635
29.8653194042095 17.606680595790507 29.988773134736498
14.568134326317505 14.639773134736501 21.9327731347365
15.3557731347365 7.993226865263502 0.2952268652635013
24.410226865263503 14.2382268652635 10.3962268652635
28.2747731347365 7.332773134736501 17.635226865263498
29.0027731347365 19.3917731347365 8.276680595790495
15.2817731347365 15.184773134736501 18.6123194042095
11.3147731347365 21.4833194042095 12.2943194042095
28.1657731347365 30.486773134736502 23.8317731347365
8.4427731347365 18.5487731347365 20.5402268652635
2.8122268652635043 9.560226865263495 18.471226865263496
27.305773134736498 25.5697731347365 8.793773134736501
19.9127731347365 0.16422686526350105 12.8227731347365
17.882226865263497 7.867680595790503 10.338319404209503
4.123680595790503 1.5113194042094982 10.888226865263498
30.5917731347365 4.701680595790492 8.588680595790493
28.709319404209502 31.033226865263494 0.9226805957904958
15.720226865263498 14.464680595790497 27.260226865263498
4.8147731347365 19.5237731347365 10.8906805957905
6.8337731347365 15.9512268652635 27.593226865263496
14.6187731347365 1.3167731347365006 30.861226865263497
0.6513194042094987 10.136319404209498 7.837226865263496
21.746226865263502 20.167226865263494 5.836226865263498
8.219319404209504 2.8792268652634974 6.8537731347365
28.2327731347365 16.9387731347365 22.4247731347365
22.0702268652635 4.5837731347365 14.6127731347365
8.296226865263499 8.5917731347365 6.387134326317508
13.0297731347365 14.853680595790493 4.937680595790496
5.685226865263495 18.1507731347365 4.3872268652635
24.950319404209502 21.5087731347365 29.202226865263505
30.2293194042095 4.623226865263497 23.3397731347365
28.0917731347365 20.267226865263503 7.407680595790495
9.7717731347365 17.841680595790507 1.5591343263175048
21.3287731347365 0.6697731347365004 30.343319404209502
26.596319404209503 8.783319404209504 10.529680595790495
28.404226865263503 2.380680595790494 30.905226865263494
3.4122268652634986 19.207680595790507 31.5183194042095
20.815226865263504 9.738680595790498 17.0672268652635
11.665680595790505 27.634226865263493 29.2783194042095
27.297773134736502 16.982226865263506 1.567680595790506
15.188226865263495 22.2927731347365 8.7047731347365
9.974680595790502 20.325226865263495 13.9987731347365
27.163226865263503 9.829680595790492 30.209226865263496
10.172226865263504 23.7132268652635 13.1587731347365
0.7542268652634974 8.327680595790497 9.864226865263497
19.9377731347365 24.9452268652635 6.239773134736501
30.6547731347365 28.2797731347365 12.6047731347365
29.6447731347365 7.5357731347365 16.2303194042095
17.014319404209502 16.8193194042095 5.797680595790496
25.142226865263503 17.433680595790506 9.854226865263499
13.9037731347365 29.994773134736498 4.8937731347365006
0.08222686526350031 24.532865673682508 15.3232268652635
8.4987731347365 19.246226865263502 18.519226865263498
13.257226865263497 20.9367731347365 11.535226865263503
22.259226865263493 31.8947731347365 21.0793194042095
21.580226865263505 8.860226865263499 21.1907731347365
11.848226865263499 11.892773134736501 21.5312268652635
19.3317731347365 19.8937731347365 17.921865673682504
21.1187731347365 6.912226865263499 16.836226865263505
11.6767731347365 29.3537731347365 15.9177731347365
15.684226865263504 27.6353194042095 11.950773134736501
17.8057731347365 21.236226865263497 30.7373194042095
28.300226865263504 26.3173194042095 21.6182268652635
25.284680595790505 15.626773134736501 31.0097731347365
1.5946805957904928 28.6593194042095 19.7767731347365
30.4217731347365 21.895226865263503 11.529226865263503
2.928226865263504 28.4697731347365 16.647134326317513
1.0057731347365007 4.298226865263501 21.8957731347365
30.3502268652635 7.447773134736501 18.215680595790502
10.739226865263497 15.6807731347365 9.273319404209499
20.0942268652635 1.4336805957905057 3.587680595790502
28.059773134736503 8.627226865263502 2.772226865263498
13.043773134736501 15.880226865263502 23.521226865263493
12.549680595790505 6.361680595790503 6.221226865263496
18.278680595790505 14.790319404209502 22.4693194042095
29.274226865263493 20.7577731347365 10.523319404209499
12.3617731347365 28.246226865263502 30.5237731347365
1.9846805957904934 27.902226865263493 21.167226865263494
23.202226865263505 0.495226865263497 29.7013194042095
3.6966805957904967 22.3687731347365 24.5767731347365
11.171319404209502 27.8137731347365 4.132680595790504
10.560226865263495 6.327319404209501 18.500226865263507
5.7012268652635 28.669773134736502 13.839319404209501
3.2386805957904983 9.725226865263501 19.270226865263503
21.4187731347365 28.4497731347365 17.399226865263493
22.4127731347365 2.2376805957904935 0.12222686526349946
22.859680595790508 6.293226865263499 30.6443194042095
25.5253194042095 11.845226865263498 5.478226865263501
7.931226865263504 19.0907731347365 21.727773134736502
31.5732268652635 17.3217731347365 12.125680595790499
15.734226865263501 31.925773134736502 20.88668059579051
20.9127731347365 31.6097731347365 31.5223194042095
21.5897731347365 26.4797731347365 12.357226865263499
1.0702268652634999 11.699226865263505 25.01768059579051
29.072226865263495 28.2926805957905 10.370773134736499
19.1703194042095 14.535226865263503 20.943680595790497
18.691226865263495 24.233773134736502 4.4147731347365
6.2247731347365 3.4702268652634984 22.8407731347365
21.888226865263498 24.237680595790508 0.9662268652635007
15.412680595790505 15.6147731347365 16.5497731347365
2.6257731347365 21.296680595790505 31.9327731347365
20.0987731347365 11.513226865263498 28.1613194042095
30.1376805957905 6.4037731347365 9.2772268652635
25.738773134736498 16.789226865263494 19.1547731347365
27.9687731347365 22.879226865263497 28.7677731347365
8.5426805957905 8.0396805957905 14.197226865263495
28.8262268652635 1.4642268652634982 17.120680595790503
13.3906805957905 25.1693194042095 29.154319404209502
11.921773134736501 20.1217731347365 17.557226865263495
25.829680595790506 12.0097731347365 21.069226865263495
21.559226865263504 25.2992268652635 0.8657731347365001
31.0167731347365 22.5193194042095 1.2532268652634997
16.7312268652635 28.083226865263505 30.4647731347365
13.345319404209501 5.168680595790505 30.4793194042095
16.5337731347365 10.6993194042095 21.007226865263497
23.236773134736502 29.334319404209502 28.624226865263502
3.1332268652635022 0.9152268652634987 30.4617731347365
1.4032268652634983 9.2577731347365 0.4712268652634961
6.776680595790495 1.1617731347364995 22.3737731347365
9.6037731347365 7.229226865263499 14.9116805957905
4.7887731347365 23.0573194042095 17.1557731347365
8.8827731347365 3.262680595790499 10.447680595790501
10.6347731347365 15.041226865263503 12.0552268652635
16.1907731347365 2.9387731347365005 17.4302268652635
10.540226865263499 31.8877731347365 31.5612268652635
19.1477731347365 22.3877731347365 18.814319404209503
27.4537731347365 7.754773134736499 27.0043194042095
11.355226865263496 31.280226865263494 31.537680595790505
16.0522268652635 1.462680595790502 9.630226865263502
21.3427731347365 28.6862268652635 19.0647731347365
26.5857731347365 24.036226865263494 10.669226865263504
23.2842268652635 10.2652268652635 4.9283194042095
30.2893194042095 7.292226865263501 17.7476805957905
10.048226865263501 10.215680595790502 30.1277731347365
23.706226865263496 22.1587731347365 21.7817731347365
23.5427731347365 11.214226865263498 24.2402268652635
25.8703194042095 8.620773134736499 2.0652268652635044
23.7347731347365 2.7472268652634995 15.8847731347365
4.1507731347365 20.378773134736498 4.789319404209504
23.4663194042095 3.6986805957905062 20.7992268652635
0.39322686526350026 2.1767731347365 9.677773134736501
12.3902268652635 4.8917731347365 20.780226865263494
18.577226865263505 5.525680595790504 24.258865673682507
17.8197731347365 7.468226865263496 24.5797731347365
31.4677731347365 13.517226865263503 19.7342268652635
31.062773134736503 23.1917731347365 4.516226865263498
30.102773134736502 26.3352268652635 1.5347731347365006
23.7607731347365 9.700680595790502 27.3322268652635
13.218226865263496 26.1457731347365 31.333680595790497
26.8357731347365 10.7307731347365 26.6357731347365
24.769226865263498 6.1122268652635015 20.0237731347365
9.784226865263498 9.6097731347365 19.9977731347365
1.0057731347365007 6.218226865263496 16.6447731347365
20.658226865263494 1.5302268652635007 24.4027731347365
28.6377731347365 27.1457731347365 22.7357731347365
12.462773134736501 22.2477731347365 9.8692268652635
15.9863194042095 8.322226865263495 23.2577731347365
20.8303194042095 27.0373194042095 19.045226865263494
18.2867731347365 28.140226865263493 14.5007731347365
15.988226865263506 16.01768059579051 29.3903194042095
28.9152268652635 22.5947731347365 10.228226865263501
9.3557731347365 29.3453194042095 8.145319404209499
6.0003194042095025 13.029226865263503 28.053226865263504
11.2222268652635 28.537865673682504 8.232226865263499
1.9692268652635008 7.523226865263503 16.372226865263507
17.263226865263498 4.6196805957904985 0.9121343263175135
5.9676805957904975 4.581773134736501 20.9452268652635
16.839226865263505 13.9227731347365 9.059680595790496
6.865226865263502 27.637226865263493 9.8427731347365
7.3292268652635 6.260226865263498 19.3717731347365
18.9362268652635 27.7273194042095 31.3323194042095
19.746226865263502 22.047226865263504 12.573680595790506
6.222226865263501 16.3047731347365 22.349226865263496
12.758226865263502 13.1887731347365 14.6162268652635
21.4597731347365 8.926226865263494 5.6897731347365
28.965319404209502 22.8592268652635 6.145680595790495
15.715319404209499 9.870226865263497 5.637319404209503
25.9182268652635 19.3757731347365 1.8832268652635022
13.7836805957905 11.3767731347365 1.1402268652635001
30.189773134736498 3.6652268652634987 1.8782268652634997
5.7622268652635 10.240226865263502 27.4993194042095
30.378773134736498 0.7546805957905036 28.6523194042095
10.273773134736501 7.192680595790506 29.9607731347365
12.4662268652635 26.884226865263493 30.2767731347365
1.1132268652634991 12.3437731347365 15.501773134736501
3.1566805957905046 1.6441343263175128 29.3597731347365
6.902773134736501 4.174226865263499 24.0103194042095
17.1887731347365 17.0103194042095 4.255773134736501
27.2933194042095 25.6307731347365 31.294226865263504
17.9392268652635 12.1526805957905 31.986773134736502
3.2622268652635 18.357319404209502 14.4512268652635
1.3472268652635009 10.3962268652635 32.107773134736505
15.522226865263498 6.1396805957904945 5.651226865263503
14.229319404209502 5.898680595790495 19.4127731347365
29.631226865263493 14.185680595790501 28.189319404209503
26.6367731347365 8.0882268652635 1.189680595790506
25.4953194042095 27.37768059579051 1.745226865263497
6.4542268652635 6.748680595790503 2.7032268652634954
24.8277731347365 4.2987731347365 12.857680595790498
28.7133194042095 11.3757731347365 15.347319404209504
11.618680595790494 18.9557731347365 16.3563194042095
14.9722268652635 28.8827731347365 9.1892268652635
10.186773134736502 4.205680595790497 29.2767731347365
24.098226865263506 31.0277731347365 7.626226865263497
14.8917731347365 17.056680595790496 29.6957731347365
25.992773134736503 21.095226865263506 14.5727731347365
4.038680595790495 17.6837731347365 17.758226865263502
3.6402268652635 9.272226865263498 24.561773134736498
1.9022268652635006 2.7587731347365008 11.949226865263505
20.842226865263505 13.5702268652635 9.2592268652635
0.7827731347364999 11.7557731347365 0.8526805957905026
4.2087731347365 22.8537731347365 25.601226865263506
8.900319404209501 20.825226865263495 12.758226865263502
15.924773134736501 7.967226865263498 30.7243194042095
4.553226865263504 6.0032268652635 1.6216805957904938
19.4573194042095 1.3217731347364996 22.8256805957905
17.2007731347365 21.331226865263496 4.431134326317505
23.292226865263494 9.435226865263495 4.7827731347365
30.0807731347365 25.380226865263502 12.6443194042095
30.0453194042095 23.580226865263505 5.0297731347365
11.211680595790497 21.3393194042095 2.3382268652635005
30.6297731347365 26.120226865263497 12.058773134736501
7.4527731347365 3.8926805957904946 24.5947731347365
22.3183194042095 29.488226865263506 9.0487731347365
1.6052268652634964 12.2857731347365 16.198773134736502
23.8437731347365 1.7032268652634954 1.4577731347365006
1.3807731347365007 19.0597731347365 0.11322686526349912
19.9433194042095 26.676226865263494 31.535773134736502
8.9377731347365 1.1222268652634995 9.1772268652635
1.2292268652634988 8.748226865263497 15.044226865263504
25.2007731347365 4.691226865263495 20.6957731347365
15.4647731347365 27.1586805957905 14.524319404209503
2.2076805957904924 28.666773134736502 12.514226865263502
31.4067731347365 22.8267731347365 2.536226865263501
20.1947731347365 11.208680595790497 3.833680595790497
16.7843194042095 2.8736805957905034 18.9603194042095
22.1937731347365 17.2477731347365 6.3142268652635
15.4272268652635 5.0212268652635 17.1017731347365
4.9527731347365 11.0457731347365 5.254680595790504
15.888226865263498 5.647680595790504 0.21222686526349577
13.145773134736501 9.821680595790497 11.7087731347365
20.8957731347365 11.148773134736501 23.5237731347365
27.750773134736498 0.2857731347365 17.7372268652635
12.546226865263499 20.925773134736502 11.156226865263498
16.3787731347365 23.628773134736498 16.4277731347365
16.740680595790508 9.701319404209503 8.883680595790494
26.995226865263497 8.749226865263502 0.9812268652635012
28.1677731347365 30.6317731347365 23.3533194042095
19.410773134736502 8.348226865263499 22.657319404209503
28.7173194042095 26.605773134736502 21.9247731347365
21.9787731347365 31.738226865263506 8.8007731347365
0.09622686526349611 6.053226865263504 4.024773134736501
12.7537731347365 2.7227731347364994 5.184226865263504
6.217226865263498 11.284226865263498 11.702226865263505
15.204680595790492 19.6832268652635 17.5552268652635
24.3327731347365 14.855226865263496 11.256680595790499
12.337773134736501 24.9693194042095 14.5797731347365
29.5787731347365 9.925680595790496 6.227226865263496
3.158226865263501 27.858773134736502 4.6537731347365
18.6183194042095 19.185226865263495 28.4808656736825
6.197226865263495 27.9722268652635 1.327680595790497
9.629226865263497 25.6917731347365 23.5887731347365
14.3457731347365 3.870773134736501 24.5492268652635
20.509226865263493 26.0817731347365 3.565773134736501
15.3597731347365 21.7162268652635 3.8427731347365004
3.4036805957905045 25.044226865263504 5.089226865263498
29.268226865263493 4.441226865263495 23.608226865263497
13.7987731347365 17.1197731347365 26.9207731347365
27.522680595790504 29.9127731347365 18.666226865263503
26.8213194042095 29.8187731347365 20.4597731347365
12.357226865263499 20.7747731347365 13.0857731347365
17.009226865263493 5.676226865263494 24.779319404209502
12.2273194042095 8.431680595790496 16.3597731347365
27.1927731347365 8.115226865263502 1.7811343263175132
26.022226865263498 23.6467731347365 12.8127731347365
11.275134326317513 15.677319404209502 11.838134326317515
4.5897731347365 23.958226865263505 17.1997731347365
7.4717731347365 1.9107731347365 22.2583194042095
1.9597731347364995 27.0737731347365 8.892226865263503
1.2097731347364995 13.324680595790497 25.550226865263504
6.2446805957904985 27.2797731347365 12.700773134736501
27.0393194042095 5.279680595790495 24.0383194042095
0.9092268652634985 13.921226865263499 1.8866805957904944
30.5603194042095 3.6652268652634987 30.7072268652635
6.100226865263501 19.047226865263504 19.025226865263498
9.859680595790493 14.5587731347365 1.9326805957905009
7.301226865263494 31.236226865263497 17.537680595790505
0.0722268652634952 7.013226865263498 10.42613432631751
28.139319404209502 30.119773134736498 25.872319404209502
3.3466805957905024 30.563226865263495 24.897680595790504
23.6737731347365 6.885226865263498 19.64268059579051
9.4146805957905 17.9967731347365 19.3487731347365
9.130226865263502 27.143226865263493 28.0642268652635
7.7757731347365 2.218226865263496 6.761773134736501
9.203226865263495 31.7073194042095 17.0307731347365
14.2567731347365 11.459226865263496 2.117226865263497
1.5057731347365007 0.10622686526350122 4.2376805957904935
16.8873194042095 5.982773134736501 24.334226865263496
21.3807731347365 8.525134326317513 10.2472268652635
23.869226865263506 25.995865673682502 27.0967731347365
17.262226865263493 31.559680595790496 26.5517731347365
24.7607731347365 1.2902268652634987 9.0062268652635
25.6387731347365 10.2973194042095 22.175773134736502
0.7717731347365007 18.7513194042095 30.880865673682507
18.2527731347365 3.080226865263505 17.328226865263495
11.078226865263495 22.044773134736502 8.0207731347365
6.190226865263504 10.3812268652635 15.7417731347365
6.207773134736501 29.822226865263495 32.0173194042095
29.078319404209502 11.3017731347365 11.4907731347365
28.227226865263496 27.279226865263503 5.6857731347365
9.612226865263501 15.695680595790506 7.7697731347365
11.848226865263499 14.247319404209502 20.519226865263498
0.6862268652634995 28.264319404209502 30.6623194042095
10.729680595790498 22.7547731347365 22.3123194042095
23.346226865263496 7.836226865263498 9.684226865263504
9.8097731347365 21.6647731347365 13.7237731347365
27.628773134736498 31.9512268652635 25.7812268652635
29.1152268652635 24.7663194042095 4.303773134736501
10.092226865263498 5.6982268652635 20.2937731347365
0.48268059579049805 15.6402268652635 13.549773134736501
14.370226865263497 26.888226865263498 8.3733194042095
10.4082268652635 31.497773134736498 30.7597731347365
30.113226865263506 5.2372268652635015 31.5972268652635
10.953773134736501 18.9332268652635 31.3643194042095
25.7006805957905 12.465226865263496 4.9777731347365
13.9387731347365 3.1112268652634967 25.3857731347365
11.8537731347365 24.2872268652635 22.663773134736502
29.9607731347365 7.6792268652634945 16.9487731347365
26.056226865263504 4.954680595790492 12.874319404209498
25.157319404209503 27.9467731347365 32.080319404209504
3.5086805957904943 20.2187731347365 31.187773134736503
12.537226865263499 16.3607731347365 16.0552268652635
7.620226865263497 14.1407731347365 0.9992268652635019
16.2937731347365 28.773226865263503 29.9067731347365
21.605226865263496 28.052319404209502 5.527773134736501
22.9047731347365 17.401226865263503 7.841319404209504
28.671319404209502 23.546319404209502 3.6677731347364997
7.7742268652635005 5.3107731347365 19.0593194042095
29.4467731347365 7.866680595790498 26.078226865263495
11.481226865263501 11.452226865263505 3.0956805957904976
1.2947731347365004 11.1847731347365 24.822226865263495
22.5947731347365 3.7062268652634955 16.306226865263504
8.0717731347365 19.5257731347365 3.516226865263498
15.7667731347365 23.2132268652635 16.1113194042095
8.432226865263495 5.3966805957904995 0.49122686526349923
3.2652268652635 28.2087731347365 2.458226865263498
1.0952268652634984 11.2437731347365 1.0537731347365007
24.229226865263506 21.428773134736502 13.7072268652635
28.683773134736498 22.7402268652635 29.1062268652635
0.5312268652634984 22.6717731347365 1.1632268652635034
25.4283194042095 26.8093194042095 2.314680595790506
19.378226865263507 8.960319404209503 10.645226865263503
20.2157731347365 28.2767731347365 3.708319404209501
22.6047731347365 7.543226865263499 2.5077731347364995
27.8412268652635 16.923226865263494 18.874226865263502
22.6592268652635 25.755226865263502 24.738226865263506
9.799226865263499 1.1662268652635035 31.0743194042095
22.302411943155505 28.9117731347365 7.2337731347365
6.1122268652635015 7.058226865263499 1.4141343263175088
19.0672268652635 26.7943194042095 30.631226865263493
15.543773134736501 2.772226865263498 4.9997731347365
20.2132268652635 20.4047731347365 22.1652268652635
29.8883194042095 22.199226865263505 11.5187731347365
3.3853194042095005 27.8237731347365 2.6126805957904935
23.410773134736502 6.499226865263502 19.488134326317507
20.5456805957905 21.8157731347365 21.959226865263496
29.953226865263495 5.694773134736501 24.640226865263493
1.5822268652635003 29.5113194042095 18.470226865263506
2.2332268652634966 2.591773134736501 5.4777731347365
15.975226865263501 22.971226865263496 3.1062268652635012
21.6983194042095 4.074226865263505 31.811773134736498
6.133226865263502 8.7072268652635 5.734226865263501
28.840226865263496 29.803226865263504 12.139226865263502
14.0547731347365 27.908226865263494 30.8387731347365
20.265226865263493 26.5197731347365 3.621226865263502
6.142226865263503 30.8897731347365 7.226773134736501
18.3757731347365 28.7962268652635 20.6347731347365
12.616773134736501 16.762226865263493 13.5747731347365
31.2233194042095 28.3687731347365 1.6692268652635036
27.7927731347365 0.8322268652635003 15.147226865263498
21.5107731347365 1.0432268652634988 16.069226865263495
30.760226865263498 18.190680595790496 12.985773134736501
27.1507731347365 16.843226865263496 11.301226865263494
16.6707731347365 15.784226865263498 31.042226865263494
17.485680595790498 21.845226865263506 16.4386805957905
17.0117731347365 11.1192268652635 20.317680595790506
29.468226865263496 32.1452268652635 28.311773134736498
3.5937731347365 9.3046805957905 20.324226865263505
23.148226865263503 27.0697731347365 26.1464119431555
29.2782268652635 4.033226865263501 4.0642268652635
6.5197731347365 2.2632268652634977 23.006226865263493
28.6647731347365 18.404226865263503 12.020773134736501
10.035226865263503 3.527773134736501 7.773226865263503
27.7776805957905 30.2077731347365 23.9957731347365
32.0072268652635 7.050773134736501 7.629226865263497
10.5582268652635 26.748773134736503 24.145865673682508
17.6067731347365 25.7007731347365 25.148226865263503
23.2147731347365 16.7447731347365 10.837680595790502
15.589319404209501 9.678226865263504 23.5457731347365
22.0762268652635 18.361226865263497 15.5717731347365
31.7877731347365 21.5777731347365 0.17822686526350395
27.3197731347365 1.578773134736501 5.078680595790502
12.914226865263501 11.740226865263502 10.68213432631751
12.946226865263505 4.305319404209502 14.383680595790494
22.1017731347365 1.8976805957905043 2.9837731347365004
7.0122268652635 5.115680595790494 19.544773134736502
6.487319404209504 26.304226865263495 1.708226865263498
2.7602268652634976 1.5582268652634994 10.3517731347365
12.5217731347365 28.4467731347365 18.6067731347365
10.306226865263504 17.7132268652635 19.021226865263493
7.918773134736501 3.3437731347365 10.008319404209498
0.17068059579050043 10.260226865263498 0.7416805957904984
14.1737731347365 29.1657731347365 24.5827731347365
26.7257731347365 8.9602268652635 27.3047731347365
7.777773134736501 24.4727731347365 18.2227731347365
27.542226865263494 25.8202268652635 5.658226865263501
1.4292268652634945 2.6467731347365007 20.9667731347365
28.655226865263494 25.541773134736502 8.338773134736499
19.840226865263496 7.7637731347365 17.940680595790496
28.2962268652635 29.0443194042095 19.953226865263495
25.8077731347365 4.133226865263502 22.4707731347365
6.069226865263495 2.197226865263495 14.7042268652635
16.3037731347365 27.604226865263506 24.855773134736502
18.133226865263502 1.0142268652635025 13.212319404209499
1.5796805957904922 4.9292268652634945 20.6127731347365
24.7647731347365 20.7747731347365 13.911226865263501
18.963680595790507 20.821226865263505 18.387226865263493
9.2557731347365 15.2457731347365 11.107319404209502
19.380226865263502 18.393226865263493 25.732226865263506
8.642226865263503 18.3137731347365 4.642226865263503
22.3347731347365 14.208680595790497 2.0387731347365
2.988226865263499 22.647226865263498 27.244319404209502
26.315773134736503 28.1712268652635 19.8097731347365
7.0527731347364995 23.375226865263507 19.2467731347365
5.1327731347364995 20.9687731347365 10.219319404209504
4.738226865263499 7.279226865263503 0.6822268652634946
12.913226865263503 7.874226865263502 26.096226865263496
17.352773134736502 14.132226865263497 17.6597731347365
23.624226865263502 3.514773134736501 14.8172268652635
2.6022268652634963 2.8242268652635047 16.3816805957905
22.0737731347365 23.2962268652635 2.9262268652634944
11.6057731347365 16.619226865263506 10.5347731347365
8.898773134736501 27.811319404209502 22.5927731347365
16.8717731347365 20.1207731347365 22.628865673682498
26.4817731347365 6.883226865263502 24.6013194042095
17.2437731347365 25.7467731347365 17.498226865263497
25.294773134736502 14.670319404209504 21.120226865263497
4.692680595790506 28.022680595790504 2.9832268652634966
17.077226865263505 21.333226865263505 11.353226865263501
6.599319404209499 5.844226865263501 2.026226865263503
20.0897731347365 30.2842268652635 4.761680595790494
10.436773134736502 31.3897731347365 17.383226865263502
19.256226865263493 22.061319404209502 21.0117731347365
31.7827731347365 13.743134326317502 0.024773134736499003
32.053226865263504 15.048226865263501 8.613680595790498
11.3737731347365 5.468226865263496 6.962226865263496
19.277226865263493 24.734680595790508 29.497773134736498
19.3297731347365 3.6362268652635024 16.017226865263503
8.163226865263503 2.4832268652634966 20.7363194042095
4.108226865263497 27.5823194042095 1.617226865263497
12.698680595790506 3.735680595790498 30.863773134736498
20.476226865263506 14.063226865263495 16.226226865263506
21.8202268652635 23.0797731347365 12.213319404209503
31.251773134736503 23.5157731347365 3.6726805957904958
29.1007731347365 14.4977731347365 5.2652268652635
3.4192268652635036 22.397226865263498 28.672865673682495
11.0302268652635 12.7747731347365 22.336226865263505
21.5807731347365 18.0267731347365 28.5467731347365
28.276226865263503 21.5027731347365 29.1187731347365
2.7657731347365004 10.903226865263498 20.1797731347365
5.290773134736501 4.084226865263496 14.1293194042095
13.1837731347365 32.0117731347365 3.498773134736501
17.7807731347365 2.9692268652635008 23.875226865263507
3.1496805957904996 14.4977731347365 24.3407731347365
19.1017731347365 19.1147731347365 21.7087731347365
15.490226865263502 10.1987731347365 3.0402268652634987
1.7427731347365008 2.4597731347364995 16.4917731347365
22.553680595790496 15.741680595790498 21.581226865263496
0.9842268652635013 11.417226865263501 25.364773134736502
22.0877731347365 25.613773134736498 6.780773134736501
23.2547731347365 22.8937731347365 0.2206805957904976
2.8477731347364994 26.104226865263506 8.7472268652635
26.974773134736502 8.141680595790504 18.605226865263496
25.4032268652635 2.697226865263495 12.9086805957905
14.563226865263495 13.5927731347365 21.7807731347365
12.017226865263503 12.755226865263502 22.169773134736502
24.0582268652635 3.597680595790493 28.0497731347365
8.201680595790492 23.2506805957905 3.623226865263497
31.0492268652635 14.669226865263504 28.4863194042095
5.214226865263498 16.294226865263504 20.643226865263493
12.360680595790498 13.4687731347365 5.577226865263505
23.4152268652635 11.627226865263502 12.868680595790494
26.2017731347365 27.0503194042095 19.4037731347365
18.9572268652635 7.838680595790493 26.3177731347365
0.6747731347365011 31.872226865263507 10.07813432631751
4.244226865263499 17.7047731347365 6.463773134736501
31.315773134736503 1.2557731347365007 9.787680595790505
29.733226865263497 12.5457731347365 10.0917731347365
4.449680595790497 2.9877731347365 15.2382268652635
19.5947731347365 8.9027731347365 17.7303194042095
15.289226865263501 1.0822268652635003 5.040680595790505
2.807680595790501 2.261773134736501 3.3042268652634945
17.849226865263496 24.991226865263506 6.6987731347365
6.7047731347365005 4.3902268652635 1.3186805957904966
14.427773134736501 12.363680595790498 27.616226865263506
27.3232268652635 31.6473194042095 16.394226865263498
13.7267731347365 5.6466805957904995 5.9283194042095
27.169226865263504 16.2197731347365 2.0377731347365007
21.782226865263503 6.221226865263496 3.0272268652635006
7.280226865263501 22.7973194042095 10.834319404209499
2.6277731347365005 28.0117731347365 6.928680595790496
0.9782268652635011 22.451680595790506 3.2446805957904985
27.0513194042095 23.5527731347365 12.051319404209497
15.3962268652635 7.104680595790498 32.0943194042095
1.9222268652635037 28.746226865263502 22.1907731347365
6.0642268652635 30.085865673682505 8.867773134736499
15.475226865263501 24.4643194042095 26.422773134736502
13.8847731347365 8.524773134736499 27.0223194042095
13.545226865263501 15.9657731347365 27.721226865263496
6.327680595790497 2.7587731347365008 21.2767731347365
6.578226865263495 4.8207731347365 11.8142268652635
25.989680595790503 9.243319404209497 31.785226865263503
31.007226865263497 22.2187731347365 20.465226865263496
26.360319404209502 9.269226865263498 10.7883194042095
22.5667731347365 1.725226865263501 29.9923194042095
14.263226865263498 15.006680595790499 15.7287731347365
19.477773134736502 29.8863194042095 14.1647731347365
12.7237731347365 26.752226865263502 9.063226865263495
4.1477731347365 20.764319404209502 13.7222268652635
25.295226865263494 3.293680595790505 22.5457731347365
29.1857731347365 28.0427731347365 1.252226865263502
17.461226865263505 13.919226865263504 29.130226865263502
1.6676805957905003 0.9732268652634986 25.1002268652635
30.2102268652635 14.0997731347365 19.9007731347365
22.6107731347365 16.352680595790503 11.195680595790506
8.341680595790493 24.3903194042095 2.3416805957904927
23.2657731347365 12.848226865263499 4.5877731347365
20.8847731347365 28.709319404209502 24.328226865263495
17.735680595790498 9.6367731347365 3.6797731347365
31.7547731347365 6.616226865263499 25.8577731347365
12.3747731347365 20.0547731347365 30.5937731347365
11.0732268652635 1.6797731347365001 12.409226865263498
15.971226865263496 16.170226865263494 29.5343194042095
19.212319404209502 21.8427731347365 17.4257731347365
10.5942268652635 5.537226865263499 6.474226865263496
2.9017731347364997 1.0082268652635022 12.3397731347365
3.7057731347365 1.5326805957904952 28.5077731347365
26.408226865263494 10.702680595790497 14.736226865263497
23.9182268652635 26.8427731347365 13.999226865263502
30.5277731347365 31.861773134736502 4.792319404209504
12.8947731347365 23.254226865263497 28.951865673682505
23.5723194042095 3.694226865263495 13.6372268652635
19.049319404209502 12.8553194042095 15.7107731347365
11.741680595790498 5.581773134736501 30.482226865263506
30.414226865263494 23.6417731347365 2.852134326317511
29.147226865263498 3.6066805957904933 21.8227731347365
13.3387731347365 4.358226865263497 4.196226865263505
14.8722268652635 8.7817731347365 28.001773134736503
13.865319404209497 4.417319404209504 13.398226865263503
5.053226865263504 1.5582268652634994 30.8273194042095
7.370680595790503 14.9373194042095 27.4573194042095
27.0882268652635 17.4093194042095 23.038773134736502
16.2992268652635 6.9277731347364995 23.2837731347365
0.8657731347365001 1.2886805957904954 24.9707731347365
17.129680595790504 16.7102268652635 18.8917731347365
6.187226865263504 12.0257731347365 27.262226865263493
13.083226865263498 5.993680595790494 5.050773134736501
7.175773134736501 13.0397731347365 28.056226865263504
21.3137731347365 1.5426805957905003 22.643226865263493
8.8167731347365 29.602773134736502 15.8747731347365
20.806680595790496 8.5217731347365 11.203226865263495
25.0573194042095 1.5577731347365003 21.0677731347365
30.3987731347365 20.636226865263502 27.4752268652635
25.7107731347365 28.6657731347365 17.0297731347365
17.0197731347365 25.8957731347365 5.663226865263503
6.368226865263502 17.686319404209502 19.6217731347365
17.9663194042095 8.880226865263502 5.2786805957905045
6.046680595790505 10.787680595790505 24.477773134736502
22.818226865263505 11.9397731347365 10.485319404209502
18.247226865263507 28.5552268652635 31.8937731347365
0.07877313473650105 10.6857731347365 23.3853194042095
17.147226865263498 5.6927731347365 4.578773134736501
21.1802268652635 9.3797731347365 10.963680595790493
28.0427731347365 25.489226865263497 4.9482268652635
4.1862268652634995 26.590226865263496 4.5072268652634975
27.878319404209503 29.5193194042095 17.654226865263503
1.231134326317516 24.8352268652635 27.9177731347365
19.400226865263498 20.6367731347365 13.113319404209502
7.7423194042095 0.25422686526349736 21.824226865263505
30.757226865263497 0.830226865263505 10.731226865263501
19.803680595790496 28.422226865263504 26.5282268652635
4.4677731347365 23.5653194042095 19.5957731347365
10.9907731347365 16.4187731347365 10.539226865263501
30.557226865263495 13.5567731347365 3.921773134736501
10.401226865263503 21.1357731347365 13.2767731347365
7.659773134736501 27.2737731347365 20.1437731347365
0.6652268652634987 31.017865673682508 26.4842268652635
27.7297731347365 26.2313194042095 4.853680595790493
0.7486805957905034 10.7987731347365 25.621680595790508
12.369680595790499 12.297680595790496 4.195680595790506
21.5393194042095 18.1987731347365 31.0897731347365
14.4082268652635 30.5582268652635 30.3897731347365
20.2227731347365 12.2412268652635 25.2836805957905
8.1897731347365 3.0777731347365 21.3136805957905
21.294773134736502 4.3782268652635 7.847226865263501
22.3187731347365 31.7867731347365 19.3997731347365
22.8957731347365 25.8636805957905 25.4163194042095
22.666226865263503 31.4782268652635 8.798319404209504
11.825773134736501 4.008773134736501 4.9162268652635035
0.10222686526349634 21.2177731347365 0.9367731347364998
19.9817731347365 10.7837731347365 4.449226865263505
25.674319404209502 26.9487731347365 0.27822686526349827
2.2972268652635037 29.9062268652635 19.5353194042095
7.7437731347365 27.3207731347365 26.223865673682496
14.0427731347365 12.3442268652635 26.236773134736502
2.5782268652634954 27.4087731347365 4.6127731347365
32.1213194042095 10.482226865263499 22.5637731347365
18.1977731347365 4.270680595790495 17.1437731347365
12.3047731347365 13.935226865263495 8.5037731347365
18.8142268652635 5.6282268652635 24.977773134736502
7.230680595790503 4.029226865263503 8.873226865263497
26.8887731347365 2.8566805957904933 31.068226865263505
18.042226865263494 30.720226865263506 27.107226865263506
16.641226865263498 8.360773134736501 24.574865673682496
16.1687731347365 22.450226865263495 9.575226865263495
12.8487731347365 25.177773134736498 21.8073194042095
29.5197731347365 21.5663194042095 28.2483194042095
3.7542268652634974 29.8363194042095 20.1847731347365
28.1857731347365 16.449226865263505 3.2257731347364995
27.361773134736502 1.9402268652635044 14.084226865263496
12.6087731347365 32.0507731347365 12.597680595790493
6.208680595790497 27.9812268652635 30.7227731347365
4.109680595790493 9.327680595790497 24.967226865263505
11.266226865263498 13.0552268652635 14.6526805957905
2.052226865263499 7.877226865263502 14.777319404209504
29.6767731347365 9.648773134736501 21.6122268652635
32.0252268652635 4.919226865263504 21.191226865263495
15.742226865263497 14.1147731347365 8.584680595790502
2.4592268652634957 27.8447731347365 11.532680595790495
31.373773134736503 18.5217731347365 14.3352268652635
18.479865673682497 26.3183194042095 15.5157731347365
1.4132268652635034 25.640226865263493 28.236226865263497
20.564773134736498 4.590680595790502 31.7237731347365
1.0707731347365002 6.4632268652635005 28.5882268652635
24.955226865263505 26.764226865263502 14.106226865263501
8.440226865263504 8.427773134736501 13.1597731347365
22.0347731347365 27.0666805957905 11.6407731347365
16.650226865263498 1.6097731347364999 30.8297731347365
4.5797731347365005 2.293680595790505 31.128773134736498
24.3507731347365 9.284226865263498 8.6327731347365
6.874319404209498 10.6757731347365 6.682226865263495
23.076680595790506 4.812226865263504 25.9253194042095
26.3347731347365 1.655773134736501 14.1067731347365
1.5937731347364998 22.075319404209502 2.2236805957904977
7.090226865263496 4.8267731347365 20.5167731347365
21.0077731347365 21.4482268652635 12.0997731347365
28.4797731347365 5.615134326317502 29.929226865263495
7.5997731347365 10.5447731347365 7.1197731347365
24.013226865263498 6.1432268652635 14.130319404209498
12.1817731347365 22.3943194042095 20.4206805957905
12.1947731347365 1.6637731347365001 24.994773134736498
17.395226865263503 12.329680595790492 10.622773134736502
9.0077731347365 21.3687731347365 10.735773134736501
1.0086805957904943 27.879226865263497 13.837226865263496
10.0397731347365 28.436319404209502 26.7937731347365
22.7417731347365 17.919773134736502 10.351226865263499
23.4677731347365 0.7262268652634987 2.9066805957905046
10.437680595790496 3.228226865263501 4.8847731347365
1.290680595790505 27.6007731347365 28.288773134736502
8.822226865263495 26.555773134736498 9.368226865263502
0.3137731347365005 8.793773134736501 0.6627731347365007
16.991226865263506 17.6922268652635 7.017226865263503
14.679226865263495 27.349680595790502 30.6917731347365
6.482773134736501 13.154226865263503 11.053226865263504
21.0163194042095 25.593226865263496 3.678226865263504
12.430319404209502 12.898773134736501 4.569226865263495
11.7527731347365 20.285226865263503 18.4893194042095
31.3043194042095 31.4707731347365 4.754680595790504
11.104226865263499 24.492226865263497 16.4697731347365
22.419773134736502 20.9687731347365 15.028226865263498
19.527226865263493 27.2282268652635 20.2657731347365
20.6687731347365 12.3817731347365 1.8467731347365
31.6277731347365 7.601319404209502 7.363226865263499
27.901319404209502 2.8667731347364995 15.797226865263504
14.2617731347365 10.123226865263497 28.190773134736503
22.131226865263493 29.7037731347365 19.729226865263506
19.410226865263503 31.366773134736498 21.1497731347365
8.5397731347365 15.177680595790505 1.5122268652635
1.2702268652635027 26.6562268652635 28.554226865263495
5.5647731347365 18.160773134736502 19.851226865263506
19.3347731347365 25.431773134736503 29.665865673682504
22.3112268652635 5.1187731347365 29.559226865263504
15.7447731347365 4.8842268652635 6.400226865263498
26.510226865263498 24.6182268652635 15.4362268652635
19.9047731347365 23.316226865263495 18.5703194042095
30.251773134736503 22.958680595790497 6.320680595790506
7.655226865263501 17.6557731347365 21.3607731347365
0.5577731347365003 10.232680595790498 1.647226865263498
20.649226865263493 11.7832268652635 27.550773134736502
5.934226865263504 11.9022268652635 6.826680595790492
7.5227731347365 0.8522268652634963 20.6347731347365
21.786226865263494 27.177319404209502 27.53868059579051
25.0717731347365 26.8443194042095 3.3522268652634963
0.23568059579049816 22.6627731347365 20.696865673682495
19.763226865263498 27.8322268652635 31.014226865263502
12.136134326317503 14.145773134736501 12.0997731347365
12.009680595790499 14.410226865263503 10.723226865263499
27.9872268652635 16.7587731347365 6.365226865263502
16.629226865263497 15.4452268652635 28.8933194042095
20.763865673682503 12.130226865263502 23.9527731347365
15.069319404209498 3.456773134736501 18.431226865263504
1.7277731347365002 21.345226865263506 31.5157731347365
20.803226865263504 24.876773134736503 12.078773134736501
13.421773134736501 21.246226865263502 10.7896805957905
11.8632268652635 15.8202268652635 5.395226865263503
20.453319404209502 21.3016805957905 18.7282268652635
30.939773134736498 17.9617731347365 27.513226865263498
11.3477731347365 19.434226865263504 1.2036805957905017
17.4062268652635 17.286226865263494 18.1122268652635
31.369773134736498 4.8657731347365 0.34822686526349855
4.059226865263504 19.337226865263496 5.769680595790504
31.9782268652635 11.287226865263499 21.166226865263503
1.069226865263495 16.627226865263502 25.3696805957905
18.135680595790504 3.8232268652635 18.7773194042095
25.742226865263497 28.5867731347365 30.1413194042095
6.940773134736501 8.2167731347365 4.513680595790504
30.6037731347365 24.203226865263495 1.671226865263499
26.738773134736498 15.607773134736501 18.632226865263497
12.370226865263497 10.584773134736501 12.4937731347365
22.7573194042095 23.7243194042095 13.7622268652635
18.186319404209502 2.4512268652635 15.011680595790494
16.619226865263506 16.389226865263502 7.096226865263496
29.936773134736498 8.5732268652635 7.293680595790505
22.557226865263495 18.8472268652635 5.011226865263502
4.957680595790492 21.5403194042095 26.443226865263505
21.428773134736502 2.498226865263497 16.3407731347365
28.3543194042095 15.6377731347365 3.7996805957905053
4.0997731347365 19.1003194042095 12.810226865263495
8.337773134736501 26.544226865263504 24.5636805957905
18.015226865263493 2.4287731347365007 17.291773134736502
12.929226865263495 28.3453194042095 3.150226865263498
6.057226865263495 25.1387731347365 2.780773134736501
11.276226865263503 25.486773134736502 29.6377731347365
9.234226865263501 2.5042268652634974 5.7502268652635
13.1357731347365 28.1923194042095 17.7527731347365
22.462226865263496 3.106134326317516 19.739226865263497
12.258680595790494 21.485226865263506 9.3037731347365
31.920226865263494 9.244773134736501 10.666226865263503
21.276319404209502 10.101226865263499 11.021319404209503
25.0342268652635 24.782226865263503 24.7107731347365
20.013226865263498 28.53568059579051 6.821680595790497
3.0496805957905053 9.145773134736501 16.723226865263506
20.7547731347365 24.7847731347365 6.687226865263504
16.5282268652635 28.348226865263506 9.4667731347365
21.396226865263493 12.5407731347365 4.449226865263505
31.7607731347365 24.6952268652635 16.987680595790508
6.602680595790503 20.1797731347365 14.1873194042095
4.879226865263497 22.551226865263494 24.998773134736503
3.8007731347365006 2.4117731347364995 12.9942268652635
7.484226865263501 31.721226865263496 1.556226865263504
17.6033194042095 15.139773134736501 9.8966805957905
22.7593194042095 3.273680595790495 16.8467731347365
15.7397731347365 7.550226865263504 5.151226865263503
16.6832268652635 15.715680595790502 10.194226865263495
22.8047731347365 14.7437731347365 2.9427731347365
17.4692268652635 27.1767731347365 5.016680595790504
10.7377731347365 5.18813432631751 28.4152268652635
19.905226865263494 25.977773134736502 18.6887731347365
11.5152268652635 9.1706805957905 3.3122268652635043
5.726773134736501 2.3196805957905013 21.9507731347365
12.691226865263495 0.3232268652635 24.8277731347365
26.976226865263506 22.2593194042095 18.4687731347365
10.9877731347365 0.8562268652635012 31.8607731347365
22.928773134736502 1.2702268652635027 29.110226865263506
23.0167731347365 5.930226865263499 4.100226865263501
26.467226865263505 25.2777731347365 14.8217731347365
16.674319404209502 18.0967731347365 2.4492268652635047
32.1602268652635 1.3203194042095028 19.7137731347365
16.330226865263505 6.985680595790498 11.338773134736499
6.6797731347365 12.131319404209503 27.687773134736503
2.0666805957905012 29.1053194042095 15.6147731347365
1.5682268652635045 25.733226865263497 8.7547731347365
15.8232268652635 3.3686805957904937 9.829319404209503
8.9157731347365 3.7387731347364994 26.7157731347365
32.0307731347365 23.723680595790498 2.248226865263497
18.366226865263506 16.135226865263498 4.242226865263497
5.529226865263503 12.722319404209504 28.036226865263494
29.988319404209502 13.165319404209502 11.904226865263503
22.7867731347365 19.337680595790502 14.087773134736501
31.553773134736502 9.6237731347365 22.0767731347365
22.1217731347365 16.433680595790506 30.901319404209502
27.586226865263505 4.356226865263501 22.0672268652635
1.2972268652635037 28.794226865263504 23.0657731347365
31.7037731347365 16.3682268652635 7.924680595790505
