24.9017731347365 18.554226865263495 30.0153194042095
6.493226865263502 20.5027731347365 24.2287731347365
26.750226865263507 7.037773134736501 25.208226865263505
6.325226865263495 31.5917731347365 19.7713194042095
9.020226865263503 20.4507731347365 12.7717731347365
7.5002268652635 11.853226865263501 7.409773134736501
19.6857731347365 18.6837731347365 5.4337731347365
9.7237731347365 8.704680595790492 12.6087731347365
5.806773134736501 18.501226865263497 13.3507731347365
28.0693194042095 1.809773134736501 7.040226865263499
22.636226865263502 31.4587731347365 31.2267731347365
6.5487731347365 11.6017731347365 30.9067731347365
27.8857731347365 27.605226865263496 15.152773134736501
18.608226865263497 9.965226865263496 23.2287731347365
18.115680595790508 4.782226865263503 28.0077731347365
27.0177731347365 13.302773134736501 1.5272268652635006
20.1712268652635 21.0702268652635 24.816226865263495
19.6097731347365 5.857680595790498 27.680773134736498
4.6392268652635025 17.2127731347365 22.2872268652635
22.887226865263493 21.411226865263494 28.2903194042095
5.0822268652635 23.678773134736502 18.7167731347365
11.605226865263496 27.5047731347365 27.4827731347365
16.1757731347365 30.7402268652635 2.3832268652635022
9.2617731347365 3.549226865263499 15.764226865263502
2.590680595790502 12.074680595790497 15.321226865263505
19.511226865263502 10.7746805957905 26.052319404209502
29.846226865263496 24.3077731347365 19.590319404209502
26.7342268652635 24.5043194042095 25.509226865263493
11.828226865263495 2.123773134736501 10.510226865263498
13.6586805957905 25.725865673682506 14.8382268652635
9.9482268652635 2.563226865263495 6.4367731347365
28.054226865263495 5.156226865263498 31.3943194042095
26.0303194042095 28.2053194042095 20.994226865263506
17.867226865263497 5.5747731347365 28.372773134736498
14.451680595790492 23.729226865263506 30.8043194042095
18.006773134736502 29.5847731347365 22.4463194042095
27.506226865263493 25.1447731347365 9.475680595790493
23.9783194042095 8.011680595790494 13.6017731347365
23.6152268652635 18.942680595790506 8.595226865263498
3.0051343263175028 16.8157731347365 12.4117731347365
13.6957731347365 28.4373194042095 23.173226865263494
22.0077731347365 20.873226865263497 28.9587731347365
8.8382268652635 15.7442268652635 5.350226865263501
27.814773134736498 23.3682268652635 8.5377731347365
22.670226865263494 16.0312268652635 1.6067731347364997
18.955680595790497 18.514319404209502 20.5283194042095
16.4302268652635 25.215226865263496 8.086226865263498
13.761226865263502 27.1587731347365 1.0517731347365
14.1097731347365 0.22722686526349634 29.8853194042095
15.551319404209497 7.553773134736501 9.676226865263494
0.28013432631750845 22.8027731347365 12.9437731347365
18.519226865263498 7.349226865263496 0.6662268652635035
16.763226865263498 12.654226865263503 8.6757731347365
29.172226865263504 6.1372268652635 14.8137731347365
29.1477731347365 24.152226865263493 4.272226865263498
9.749680595790494 1.1387731347364998 24.9637731347365
6.537773134736501 12.2027731347365 8.525226865263498
29.1443194042095 14.2267731347365 25.7727731347365
10.0417731347365 9.9302268652635 5.845226865263498
31.0637731347365 3.7012268652635 23.336226865263505
3.2057731347365 6.985226865263499 31.2312268652635
31.0837731347365 22.3017731347365 14.6467731347365
4.299680595790505 20.539226865263494 28.0847731347365
13.490226865263502 24.008226865263502 29.3457731347365
8.275680595790504 16.328226865263495 24.663773134736502
30.061319404209502 0.6872268652635043 31.7663194042095
23.374226865263502 9.1372268652635 21.4887731347365
13.5227731347365 15.409226865263498 29.5687731347365
20.9557731347365 15.5612268652635 0.49968059579049395
18.8323194042095 24.1557731347365 4.9307731347365
8.0297731347365 0.4882268652634991 13.882226865263497
10.6887731347365 18.643226865263493 21.247319404209502
22.9103194042095 29.8877731347365 9.799226865263499
10.933773134736501 0.21177313473650017 9.2617731347365
11.1436805957905 4.971226865263496 28.2593194042095
2.7277731347365 14.232226865263499 21.4123194042095
3.3122268652635043 8.8187731347365 0.8322268652635003
11.278226865263498 9.4362268652635 5.659680595790505
3.0866805957904973 18.2962268652635 16.050226865263504
0.796226865263499 29.4122268652635 26.6097731347365
27.6802268652635 5.254773134736499 23.470226865263506
3.4812268652635012 9.1587731347365 1.6862268652634995
14.290680595790505 17.646226865263493 14.831226865263496
11.099226865263496 9.6892268652635 24.502226865263502
9.709680595790502 15.781226865263498 4.734319404209504
13.4037731347365 3.5072268652634975 22.669773134736502
15.220226865263498 21.0737731347365 20.052319404209502
13.0657731347365 6.4732268652634986 27.614773134736502
14.997319404209502 1.5852268652635004 23.4817731347365
28.968680595790502 28.0677731347365 14.623680595790503
2.648226865263503 21.8567731347365 14.3677731347365
19.812134326317505 0.6941343263175099 18.361226865263497
28.390226865263493 27.9597731347365 6.453226865263495
6.494226865263499 25.849773134736502 13.8777731347365
14.9117731347365 21.9203194042095 31.6523194042095
31.920226865263494 19.130226865263502 19.3583194042095
30.741865673682497 0.49777313473649976 32.0937731347365
7.7857731347365 19.660773134736502 17.9767731347365
27.866773134736498 24.1982268652635 29.2197731347365
31.066226865263495 11.1297731347365 21.308319404209502
2.3657731347365 28.375226865263507 7.110680595790498
0.850680595790493 12.653226865263498 2.827226865263505
16.8227731347365 12.959226865263496 15.206226865263496
27.3877731347365 19.0327731347365 3.5907731347364997
15.3747731347365 4.7927731347365 26.6467731347365
29.3903194042095 1.1432268652635003 1.441226865263495
7.877226865263502 8.763226865263498 11.977226865263496
3.3957731347364994 16.1017731347365 11.4487731347365
13.162226865263499 29.1293194042095 18.413773134736502
23.439773134736498 30.9763194042095 29.8382268652635
13.048226865263501 28.366226865263506 2.093226865263496
1.2292268652634988 10.0037731347365 25.0672268652635
6.208226865263498 2.1797731347365 10.6372268652635
18.4467731347365 7.0777731347365 19.491319404209502
17.254226865263497 8.9362268652635 5.0366805957905
1.333226865263498 8.090680595790502 26.2787731347365
19.417226865263494 2.4632268652635005 20.663226865263503
30.5133194042095 24.2563194042095 20.4813194042095
19.9707731347365 29.6737731347365 3.1452268652635027
12.0047731347365 21.5667731347365 24.7357731347365
23.938226865263495 16.572226865263495 24.233226865263497
2.7406805957904936 14.3202268652635 9.8112268652635
18.5237731347365 13.135226865263498 0.1427731347365011
12.459773134736501 30.3472268652635 27.3592268652635
29.2047731347365 26.2897731347365 14.562226865263504
4.800226865263504 7.050773134736501 19.7497731347365
18.818226865263505 23.5863194042095 3.7312268652635012
19.5197731347365 12.2012268652635 4.593226865263496
5.968226865263496 6.296226865263499 24.916773134736502
4.2987731347365 12.4257731347365 23.846226865263496
28.1107731347365 27.527226865263493 21.9177731347365
3.2307731347365003 15.5087731347365 20.682226865263495
23.5847731347365 25.8237731347365 19.6063194042095
29.808773134736498 12.4587731347365 10.5537731347365
30.625226865263507 25.181226865263504 21.0427731347365
26.6597731347365 18.9897731347365 14.8477731347365
10.353680595790493 31.4817731347365 7.469773134736501
17.303226865263504 10.514773134736501 31.0747731347365
11.940226865263504 16.505226865263502 15.0997731347365
14.3227731347365 30.7587731347365 27.5747731347365
13.263680595790504 13.690226865263504 21.977226865263496
23.453319404209502 19.7357731347365 10.7532268652635
22.837680595790502 29.2807731347365 2.472226865263501
25.242226865263497 6.3567731347365 25.8967731347365
18.5156805957905 16.6736805957905 27.3347731347365
10.025226865263498 9.6037731347365 12.764773134736501
1.9897731347365006 6.331773134736501 25.6563194042095
27.6853194042095 0.36168059579050293 14.243226865263502
13.1657731347365 10.9997731347365 19.473680595790498
20.086226865263505 4.045226865263501 12.745680595790503
28.232319404209502 29.0727731347365 3.873773134736501
14.674773134736501 28.558773134736498 13.8907731347365
15.3827731347365 13.7716805957905 9.1707731347365
24.222680595790507 5.209680595790502 10.210680595790492
19.3827731347365 29.6567731347365 13.7477731347365
17.3017731347365 13.0987731347365 5.180226865263499
29.3167731347365 27.801226865263494 22.019680595790504
16.3003194042095 9.552773134736501 25.0923194042095
0.7242268652634962 18.7897731347365 18.5317731347365
2.8917731347365 12.861226865263497 14.8937731347365
15.447226865263495 19.088680595790507 0.07113432631750527
23.8563194042095 27.977226865263496 4.133680595790494
11.7077731347365 11.694226865263495 0.8986805957904949
13.981226865263501 27.5913194042095 4.5907731347365
2.918226865263499 8.6147731347365 0.36922686526349935
19.7997731347365 6.391680595790504 10.3177731347365
9.505680595790494 16.3197731347365 11.0837731347365
20.0822268652635 26.578226865263495 28.5327731347365
24.7987731347365 27.0257731347365 3.2106805957904925
11.3722268652635 27.434226865263504 2.1897731347365
4.479680595790498 23.979226865263506 0.15022686526349815
10.5827731347365 10.650680595790504 25.771226865263493
30.6687731347365 8.110226865263499 14.7337731347365
2.597680595790493 14.184226865263504 18.5517731347365
20.01168059579051 21.3337731347365 24.1002268652635
4.1126805957904935 2.4627731347364996 17.2517731347365
4.5607731347365 5.760226865263498 11.779680595790495
14.3117731347365 26.437773134736503 23.689773134736498
3.090226865263496 15.112226865263501 26.9767731347365
7.069226865263495 8.4297731347365 19.4077731347365
0.38731940420950295 27.977226865263496 19.0017731347365
29.555773134736498 25.834680595790502 23.4467731347365
18.6297731347365 28.565773134736503 2.779680595790495
11.514226865263502 20.598680595790498 21.500319404209502
23.1032268652635 18.3047731347365 29.214226865263505
0.24077313473650008 9.0013194042095 12.7502268652635
17.8257731347365 19.035773134736502 26.104226865263506
23.7127731347365 18.599226865263496 9.752226865263502
7.384680595790499 19.442773134736502 3.1707731347365
28.2027731347365 26.515226865263493 23.587226865263496
29.7907731347365 31.291226865263503 16.952226865263505
31.0943194042095 31.991773134736498 26.1627731347365
8.276773134736501 13.9422268652635 16.1457731347365
10.870226865263497 0.6162268652634992 1.4557731347365
25.730773134736502 2.0082268652635022 10.0672268652635
24.464226865263505 24.382226865263497 0.5062268652634998
5.393680595790499 17.0762268652635 11.9197731347365
28.532226865263503 18.715319404209502 5.422226865263504
0.5387731347365001 1.1467731347365007 6.053226865263504
2.9762268652634987 1.4387731347365005 15.697680595790501
20.310226865263495 7.716226865263501 19.780226865263494
6.999226865263502 27.224773134736502 12.6466805957905
28.7173194042095 6.5726805957905015 13.5272268652635
17.899226865263493 11.276226865263503 23.913773134736502
4.2897731347365 11.679226865263495 24.0617731347365
3.752680595790494 7.4397731347365 16.039226865263494
2.0286805957905045 7.559680595790496 7.367226865263497
2.8372268652634958 8.3197731347365 16.5687731347365
18.121226865263502 30.8977731347365 0.6756805957904959
16.4527731347365 10.789226865263501 30.855226865263496
19.0227731347365 5.2012268652635 13.009680595790499
3.4037731347365003 19.3087731347365 28.2992268652635
3.0982268652634986 8.0272268652635 2.072226865263495
19.401226865263503 19.5567731347365 24.9163194042095
22.4927731347365 1.0102268652634976 5.8482268652634986
0.10422686526349878 24.4787731347365 17.137226865263493
3.8667731347364995 9.3367731347365 2.589226865263498
14.1676805957905 11.437226865263504 1.421226865263499
23.5432268652635 8.6057731347365 12.437226865263504
17.200226865263495 23.132226865263497 22.8727731347365
23.3107731347365 25.474226865263496 31.614865673682502
28.1123194042095 13.7987731347365 21.604226865263506
3.002226865263502 15.936319404209502 9.547680595790496
27.5303194042095 6.264773134736501 14.812773134736501
29.6987731347365 19.8743194042095 24.620773134736503
8.4512268652635 23.3682268652635 24.1823194042095
2.5782268652634954 5.553226865263504 10.786226865263501
18.4307731347365 25.959226865263496 30.9027731347365
31.6562268652635 31.601226865263506 26.3487731347365
11.357773134736501 20.3357731347365 4.077226865263505
11.227226865263496 20.0187731347365 19.495226865263497
13.0717731347365 29.7927731347365 27.6967731347365
4.9427731347365 27.6892268652635 7.177680595790505
27.1007731347365 15.267773134736501 20.084226865263496
21.5127731347365 13.439319404209503 30.8447731347365
17.5847731347365 14.4777731347365 9.4997731347365
28.745773134736503 7.4917731347364995 5.5687731347364995
8.520226865263503 6.107226865263499 1.796226865263499
9.994773134736501 3.266226865263498 28.2042268652635
24.2453194042095 30.9113194042095 15.901226865263503
30.0377731347365 1.1952268652634999 24.3277731347365
19.417226865263494 12.754226865263497 0.1816805957904961
12.578226865263495 15.7017731347365 1.6372268652635
11.952226865263505 17.1537731347365 16.5912268652635
2.6282268652634997 27.1247731347365 25.8337731347365
24.3502268652635 6.3892268652635025 2.1692268652635036
6.706773134736501 21.236773134736502 3.6022268652634963
31.3987731347365 2.7242268652634962 6.6257731347365
12.8977731347365 7.765319404209503 23.4677731347365
19.343226865263496 28.554226865263495 0.9567731347365012
6.461226865263498 10.9332268652635 31.741226865263506
2.9397731347365 17.241226865263506 28.0397731347365
8.5092268652635 0.31422686526349963 29.992865673682502
26.3622268652635 29.7812268652635 22.8737731347365
10.6552268652635 13.832680595790492 30.389226865263502
2.2543194042095003 0.7106805957904925 30.9057731347365
23.5427731347365 5.614226865263497 17.4207731347365
21.3833194042095 9.7117731347365 30.116226865263506
3.7097731347364995 15.258226865263502 27.181773134736503
10.398226865263503 4.9147731347365 6.7607731347365
1.7192268652635008 8.782226865263503 25.428773134736502
7.853226865263501 31.369226865263506 19.687226865263504
6.5762268652635 29.8797731347365 21.4032268652635
2.188680595790501 2.7546805957905036 2.877680595790494
26.0216805957905 20.2416805957905 28.404319404209502
21.2737731347365 7.937773134736501 27.2553194042095
30.6092268652635 7.748226865263497 6.534773134736501
26.8867731347365 18.4507731347365 5.3847731347365
5.183226865263499 20.929226865263495 8.961226865263498
7.924226865263499 17.339226865263505 26.876226865263497
18.0883194042095 17.2797731347365 21.3117731347365
32.0247731347365 1.0886805957904926 4.800226865263504
3.0352268652635033 13.2377731347365 16.226680595790498
27.3847731347365 10.246226865263502 17.682226865263495
9.1952268652635 22.2252268652635 17.172226865263504
19.501226865263497 12.928226865263504 22.226226865263506
10.7337731347365 7.7467731347365 19.143226865263493
21.3867731347365 14.7307731347365 12.991773134736501
29.464680595790497 26.3442268652635 23.721680595790502
29.745226865263497 6.398226865263503 7.209226865263496
31.254226865263497 27.3507731347365 13.213319404209503
2.7192268652635008 6.817680595790506 0.17022686526350128
13.632226865263497 12.8877731347365 21.720226865263506
5.537680595790505 20.270319404209502 25.5433194042095
4.4327731347365 26.855226865263496 22.0897731347365
25.9817731347365 18.131226865263493 30.476226865263506
23.7012268652635 22.2463194042095 13.4877731347365
28.6766805957905 16.642226865263503 6.1322268652634975
13.3037731347365 14.171680595790505 2.5512268652634944
10.0627731347365 13.6547731347365 17.8957731347365
5.0387731347365 24.436773134736498 2.6552268652635007
15.841680595790507 5.593680595790502 15.9267731347365
9.8767731347365 25.4717731347365 8.1933194042095
21.860226865263506 20.6652268652635 19.724226865263496
26.498226865263497 26.5743194042095 14.5822268652635
1.8982268652635028 29.1783194042095 27.065773134736503
9.1047731347365 9.342226865263498 19.983773134736502
25.267226865263503 18.840226865263496 12.407319404209499
31.483226865263497 16.8547731347365 4.7307731347365
24.9677731347365 26.6203194042095 19.9543194042095
8.438226865263495 12.118680595790494 23.4127731347365
28.334226865263496 24.120773134736503 2.5552268652634993
0.2646805957904945 5.985226865263499 1.4982268652634971
7.2087731347365 3.4542268652635 16.059226865263504
0.0927731347365004 0.468226865263496 31.306773134736503
31.6017731347365 19.7557731347365 21.1562268652635
17.001226865263497 21.4703194042095 24.5927731347365
6.4602268652635 1.2733194042094986 30.0273194042095
25.675773134736502 20.084226865263496 2.641226865263498
31.331226865263496 14.056680595790496 24.9253194042095
24.3653194042095 8.741773134736501 0.6062268652635012
7.7622268652635 30.851865673682497 18.904226865263503
26.500773134736498 29.051226865263494 0.8652268652635016
4.748773134736501 22.720226865263506 28.7333194042095
4.284680595790505 25.235226865263506 29.1563194042095
25.3993194042095 12.4067731347365 5.0456805957905
20.1182268652635 12.2667731347365 19.6287731347365
25.0697731347365 18.5612268652635 15.1132268652635
10.6522268652635 21.2847731347365 4.868226865263502
19.848226865263506 23.118680595790508 4.9237731347365
6.718226865263496 17.602226865263496 30.382226865263497
27.102226865263496 0.8202268652634999 15.086226865263498
9.461226865263498 30.965226865263496 6.501773134736501
13.2442268652635 16.531680595790505 15.429319404209497
28.681773134736503 17.27068059579051 4.7572268652634975
22.0147731347365 31.8153194042095 11.2597731347365
10.9447731347365 21.2767731347365 1.9647731347365003
5.4437731347364995 26.4117731347365 3.8286805957905017
21.8207731347365 30.080226865263505 23.2697731347365
24.346226865263496 28.4057731347365 20.8467731347365
17.4837731347365 29.389319404209502 20.2372268652635
6.944226865263495 7.9392268652635 26.2157731347365
3.3882268652634977 2.245226865263497 28.617226865263497
19.1397731347365 24.2287731347365 23.224226865263496
8.633226865263502 21.700226865263495 12.903680595790505
27.497773134736498 5.662226865263499 24.191226865263495
29.7513194042095 11.516680595790504 11.329680595790492
13.5377731347365 2.4573194042095032 20.480773134736502
7.6097731347365 19.385226865263498 31.6952268652635
21.629226865263497 20.1467731347365 15.3587731347365
21.524226865263493 15.545226865263501 21.4403194042095
4.250134326317507 18.0947731347365 16.3047731347365
18.223226865263506 3.8252268652634953 21.997319404209502
18.4347731347365 5.005773134736501 13.8587731347365
16.195773134736502 20.739226865263497 30.8423194042095
15.623680595790503 7.752319404209498 2.681773134736501
20.288773134736502 13.767226865263503 32.019773134736496
2.6452268652635027 29.5167731347365 18.1237731347365
12.1387731347365 1.6487731347364996 22.672773134736502
2.7193194042095037 7.040226865263499 14.846226865263496
31.7347731347365 17.723226865263506 13.010226865263498
13.8207731347365 2.9997731347365004 0.12477313473650042
11.257226865263497 3.5002268652634996 15.157226865263503
18.7007731347365 4.101226865263499 22.5942268652635
23.0177731347365 9.713773134736499 2.3341343263175105
5.228226865263501 4.845680595790498 25.4177731347365
26.363773134736498 10.116773134736501 16.8937731347365
17.2877731347365 10.9797731347365 24.2037731347365
17.7287731347365 13.4147731347365 8.7217731347365
6.7787731347365 4.877226865263502 25.486226865263497
7.020226865263503 10.620226865263497 31.1733194042095
14.9797731347365 18.3502268652635 13.5697731347365
1.7132268652635005 22.3047731347365 22.264226865263502
11.8297731347365 21.5972268652635 7.3587731347365
24.6407731347365 27.6077731347365 4.979226865263499
11.266226865263498 20.297226865263504 27.8947731347365
6.3437731347365 25.041773134736502 4.9937731347365
20.1433194042095 16.7813194042095 15.0137731347365
29.9517731347365 5.427226865263499 30.717226865263505
18.7447731347365 17.884226865263493 20.2883194042095
1.8026805957905054 12.394226865263498 2.3107731347365004
21.792226865263494 26.750865673682497 27.0827731347365
13.8467731347365 5.4572268652635 27.098865673682496
6.0427731347365 20.977773134736502 2.844773134736501
5.221226865263496 22.5977731347365 20.129680595790504
24.093226865263496 9.7693194042095 23.0397731347365
6.7622268652635 8.225319404209504 19.9037731347365
31.654319404209502 20.239773134736502 21.52668059579051
30.6467731347365 17.0657731347365 31.4697731347365
3.499680595790494 21.8303194042095 8.984226865263501
31.1783194042095 17.1167731347365 10.773773134736501
9.098226865263499 22.2637731347365 15.8003194042095
27.2267731347365 25.2377731347365 23.642226865263503
6.991680595790498 23.3577731347365 25.684773134736503
23.5957731347365 1.7432268652635017 31.374226865263502
3.1366805957904944 27.430773134736498 26.2667731347365
2.7276805957905026 14.345226865263498 28.907226865263503
6.8277731347365 10.956773134736501 0.27922686526350304
17.602680595790503 22.0017731347365 13.847319404209504
3.802226865263499 16.733226865263497 21.736680595790503
23.438226865263495 8.1552268652635 23.04168059579051
18.9447731347365 17.706226865263496 5.1567731347365005
15.190226865263504 29.337319404209502 27.677773134736498
4.414226865263501 31.7133194042095 22.322226865263495
22.0642268652635 13.707319404209503 17.0187731347365
16.666226865263503 0.252226865263502 15.9477731347365
21.372226865263507 15.875319404209502 20.0522268652635
25.244773134736498 0.2276805957905026 27.899226865263493
4.8902268652635 27.1583194042095 7.863773134736499
6.118226865263502 18.8172268652635 6.968226865263496
4.5672268652635 18.019226865263498 11.553226865263504
3.1862268652634995 2.8326805957904924 18.6017731347365
16.612680595790508 18.9543194042095 13.254226865263497
31.3417731347365 5.816773134736501 31.852773134736502
29.4047731347365 11.5397731347365 22.3883194042095
8.501680595790504 26.6217731347365 13.024319404209503
2.1167731347364995 26.2647731347365 31.7807731347365
6.8482268652634986 16.2907731347365 6.394226865263498
4.440226865263504 28.0277731347365 8.0246805957905
13.513226865263498 21.1927731347365 24.5077731347365
9.4747731347365 24.976226865263506 9.2622268652635
19.1497731347365 15.3407731347365 27.0983194042095
20.5492268652635 12.6007731347365 22.784680595790505
18.3007731347365 10.725680595790493 23.9447731347365
30.7623194042095 14.422680595790496 10.4087731347365
2.9956805957905033 29.7567731347365 18.965226865263496
31.6557731347365 1.5736805957905062 5.514773134736501
17.881773134736502 19.261226865263502 5.245680595790503
12.755226865263502 29.6122268652635 24.4187731347365
3.141680595790504 27.2893194042095 10.1376805957905
20.5283194042095 21.730680595790503 9.906319404209501
12.4302268652635 28.580226865263505 0.3712268652635018
13.6707731347365 24.605773134736502 3.7102268652635004
7.3727731347365 8.2247731347365 13.226226865263499
2.546226865263499 25.9727731347365 29.8523194042095
30.7997731347365 2.979226865263499 23.2723194042095
9.115226865263502 23.794773134736502 8.654226865263503
17.243680595790508 11.1187731347365 3.2507731347365
2.8823194042095004 0.09368059579050225 31.7863194042095
0.2097731347364995 6.511680595790494 10.4692268652635
27.4122268652635 2.6177731347365008 20.913773134736502
27.273319404209502 18.108773134736502 3.4007731347365002
24.5307731347365 6.777226865263501 24.759226865263493
1.377226865263502 24.5133194042095 17.133226865263502
30.3353194042095 1.4033194042095012 6.3812268652635
24.9047731347365 16.3622268652635 23.003226865263507
15.9357731347365 13.6217731347365 7.238226865263499
25.689773134736498 7.121680595790494 6.681226865263504
20.6187731347365 4.915226865263499 3.1092268652635013
5.755226865263502 3.6707731347365 1.1432268652635003
14.7947731347365 2.6892268652634996 10.510226865263498
18.748680595790503 23.8857731347365 5.197226865263495
2.7437731347365 10.615226865263502 23.2716805957905
8.2727731347365 28.8472268652635 22.3317731347365
22.7803194042095 14.301226865263494 25.700226865263495
27.8287731347365 28.5887731347365 4.7317731347365
3.9562268652634955 23.397226865263498 21.2427731347365
26.1407731347365 29.741226865263506 28.3397731347365
20.759226865263493 5.520226865263503 3.171680595790505
26.5977731347365 26.6997731347365 20.5993194042095
31.215319404209502 18.628226865263507 11.8437731347365
14.8962268652635 0.7803194042095036 25.617226865263497
14.441226865263495 8.4487731347365 19.3747731347365
9.9527731347365 19.8427731347365 20.894226865263498
8.2297731347365 16.2707731347365 4.5852268652635
30.9457731347365 29.675226865263504 14.7077731347365
11.276773134736501 2.7342268652635013 10.818680595790497
17.3657731347365 31.0787731347365 2.252680595790494
18.169773134736502 29.6497731347365 21.485411943155498
30.7927731347365 4.7806805957905 10.977226865263496
26.6703194042095 9.8427731347365 30.3257731347365
7.242680595790503 19.265226865263493 13.0707731347365
5.474226865263496 28.2923194042095 9.174680595790505
4.2562268652635 23.0957731347365 19.874226865263502
16.6967731347365 0.01868059579049941 23.2147731347365
30.0427731347365 23.294773134736502 17.099773134736502
3.492226865263497 22.7017731347365 8.7567731347365
32.100865673682506 8.556773134736499 14.2637731347365
8.3657731347365 22.7237731347365 18.2553194042095
17.5307731347365 12.124226865263502 23.950226865263495
31.1547731347365 8.4347731347365 15.1697731347365
24.867773134736503 16.016680595790504 23.6383194042095
17.7402268652635 28.1993194042095 4.120226865263497
1.1396805957904945 28.6687731347365 7.976226865263499
2.8582268652634966 19.455226865263505 17.739226865263497
11.651226865263503 29.4387731347365 1.3962268652635004
27.3197731347365 1.8716805957904938 14.2957731347365
6.594319404209504 3.0712268652635046 0.578773134736501
0.7507731347364999 27.0423194042095 0.5373194042095015
21.7403194042095 25.452865673682496 11.212226865263496
27.680773134736498 28.1577731347365 7.9107731347365
1.3982268652635028 29.378773134736498 27.4457731347365
6.145226865263503 16.2697731347365 29.8303194042095
12.6827731347365 1.8912268652634978 2.8597731347365
10.256680595790499 25.2988656736825 9.1192268652635
7.818680595790497 6.995226865263497 3.5132268652634977
14.9267731347365 7.626226865263497 3.2287731347364996
13.1892268652635 27.1657731347365 4.119226865263499
11.4747731347365 17.2956805957905 10.913226865263503
3.6796805957905008 16.6047731347365 4.879773134736499
16.875226865263507 8.7307731347365 10.790226865263499
16.7007731347365 13.112680595790493 8.9942268652635
31.508226865263502 15.444319404209498 31.5457731347365
11.9207731347365 29.202226865263505 18.6277731347365
19.682226865263495 22.4843194042095 3.9577731347365006
2.8522268652634963 27.8652268652635 9.473226865263499
5.7637731347365 21.280226865263494 3.6802268652634993
30.1297731347365 15.3337731347365 27.138226865263498
9.813680595790501 31.4688656736825 8.0257731347365
10.3153194042095 11.7442268652635 6.2417731347364995
28.443226865263505 31.4077731347365 10.212319404209499
3.130226865263502 8.303226865263504 17.1737731347365
7.972680595790493 22.663226865263503 23.7953194042095
17.943226865263505 2.0276805957904998 28.760226865263498
24.678680595790496 1.732226865263499 21.0677731347365
22.65168059579051 29.764226865263502 10.7277731347365
11.9387731347365 11.603680595790493 8.590226865263496
10.447680595790501 15.5937731347365 17.456226865263496
0.6666805957904955 19.1647731347365 10.5937731347365
21.822226865263495 32.0857731347365 18.5303194042095
19.500226865263507 13.610226865263499 30.7827731347365
20.3213194042095 22.54168059579051 23.9047731347365
26.410773134736502 26.806773134736503 13.8842268652635
0.8062268652635041 1.867226865263497 10.860226865263499
27.6948656736825 4.721134326317511 28.428226865263504
9.686773134736502 12.3932268652635 24.9543194042095
16.9827731347365 11.517226865263503 7.651226865263503
9.701680595790492 14.700773134736501 18.130226865263502
30.7223194042095 0.6046805957904979 25.8357731347365
0.9672268652634983 7.909680595790505 24.1577731347365
27.881226865263493 23.351680595790498 8.0882268652635
6.925680595790496 17.000226865263507 31.392226865263503
10.4236805957905 28.6017731347365 18.4797731347365
17.7747731347365 25.989680595790503 8.372773134736502
3.302226865263499 25.5912268652635 31.3107731347365
11.686680595790506 19.730773134736502 21.138226865263498
17.3507731347365 13.700226865263495 17.164226865263494
24.068226865263505 3.5187731347365006 10.6117731347365
26.7233194042095 15.086680595790497 19.7783194042095
16.1047731347365 18.3442268652635 21.1592268652635
10.245226865263497 5.972226865263501 11.532226865263503
31.8453194042095 18.4553194042095 14.8057731347365
23.8447731347365 8.5027731347365 22.7937731347365
13.6252268652635 29.0607731347365 13.288226865263503
6.005773134736501 26.8622268652635 18.1017731347365
17.8667731347365 27.2107731347365 1.0196805957905042
27.614226865263497 14.9777731347365 21.4597731347365
24.305319404209502 1.0176805957904946 5.777226865263501
0.060680595790501 17.980773134736502 29.7557731347365
3.0841343263175105 14.711226865263498 1.4536805957905017
17.2927731347365 10.291226865263503 14.779226865263503
5.4277731347364995 21.0822268652635 2.897226865263498
17.3267731347365 24.9627731347365 11.107319404209502
12.1787731347365 7.338680595790493 23.5967731347365
2.5357731347365 7.7277731347365 5.843226865263496
19.931226865263504 29.431226865263504 4.036226865263501
20.0612268652635 16.533226865263494 13.847680595790493
25.307226865263495 8.8632268652635 22.896226865263493
5.776226865263503 20.1007731347365 7.171226865263499
12.6127731347365 14.583680595790497 23.6067731347365
9.453319404209498 18.638226865263498 20.1217731347365
22.255226865263502 9.345226865263498 30.012226865263493
27.2128656736825 18.4097731347365 9.713134326317515
28.3197731347365 11.758226865263502 16.883226865263502
24.7853194042095 1.478319404209504 5.213680595790493
14.410319404209499 7.821226865263505 10.181226865263504
10.306773134736499 9.706319404209498 20.2117731347365
4.315226865263504 1.077680595790497 22.6136805957905
3.755680595790494 24.5852268652635 29.331226865263496
11.427773134736501 30.9392268652635 22.474773134736502
22.2437731347365 6.749226865263502 28.107319404209502
24.240680595790508 0.11122686526349668 15.762319404209503
10.2562268652635 0.46922686526350077 6.9277731347364995
19.5787731347365 15.161226865263501 26.349773134736502
31.4577731347365 6.959680595790502 7.0767731347365
15.8167731347365 20.4267731347365 13.3553194042095
21.870226865263497 10.064680595790506 12.365319404209497
5.753319404209503 22.3697731347365 26.4553194042095
25.2223194042095 20.2317731347365 19.163773134736502
2.7493194042094977 28.717226865263505 11.6887731347365
6.517226865263503 20.2147731347365 2.3207731347365
25.4097731347365 0.013680595790503958 26.4297731347365
27.7617731347365 11.8932268652635 15.3352268652635
25.7267731347365 20.2807731347365 3.2917731347365002
25.505226865263502 29.551226865263494 2.5327731347365
17.9542268652635 0.5056805957904942 9.4767731347365
0.3192268652634951 13.080226865263505 28.733680595790503
20.136226865263502 15.418226865263499 2.857680595790498
24.3847731347365 9.417226865263501 0.8987731347364996
21.419226865263504 30.488773134736498 9.7667731347365
13.2072268652635 21.3142268652635 7.0997731347365
29.977773134736502 22.982226865263506 0.37222686526349946
4.816680595790501 3.2806805957905 16.134319404209503
8.749226865263502 9.697226865263495 20.553773134736502
1.529226865263503 1.316226865263495 23.0057731347365
31.389319404209502 30.880226865263502 26.945680595790506
16.760226865263498 18.5852268652635 31.0457731347365
10.548226865263501 7.220226865263498 11.4757731347365
8.806773134736499 26.251226865263497 11.8322268652635
22.8703194042095 0.40968059579050475 22.869226865263506
29.0852268652635 9.331226865263496 26.0773194042095
19.142319404209502 4.4403194042095 3.5016805957905035
22.8827731347365 10.533319404209504 29.336680595790497
2.6392268652635025 6.565773134736501 12.604226865263499
19.2463194042095 0.0032268652634996897 26.3957731347365
4.0032268652635 9.389773134736501 1.9917731347364995
20.536226865263494 2.0291343263175037 2.1256805957904987
26.7583194042095 29.9448656736825 27.3717731347365
0.14577313473649944 19.9482268652635 25.655226865263494
30.123226865263497 25.602773134736502 21.6937731347365
3.0112268652635024 15.6937731347365 21.904226865263503
5.7537731347365 3.596226865263496 15.516226865263498
3.108680595790503 7.9392268652635 16.574226865263505
15.4482268652635 7.681773134736501 3.5652268652635044
2.6632268652635034 0.7627731347365003 26.6617731347365
24.9557731347365 24.1983194042095 12.827226865263505
11.5517731347365 17.8082268652635 10.3847731347365
1.6086805957905028 9.628680595790499 21.7317731347365
17.343319404209502 0.5052268652635021 8.438226865263495
17.3502268652635 8.734226865263501 20.102773134736502
15.1477731347365 8.787226865263499 20.165680595790505
23.747865673682497 11.9347731347365 8.057226865263495
29.0767731347365 6.712226865263496 14.1037731347365
10.0007731347365 0.3966805957904995 24.642226865263503
25.425680595790496 2.0732268652635 20.9557731347365
23.155226865263494 29.6587731347365 22.7557731347365
6.154226865263503 7.388226865263498 11.321226865263505
26.6093194042095 18.8067731347365 31.0402268652635
25.1313194042095 12.184226865263504 17.3067731347365
7.777773134736501 7.519680595790504 26.9507731347365
32.0757731347365 0.4502268652634953 10.0677731347365
1.9647731347365003 6.1402268652635 0.7162268652635007
19.788773134736502 5.1462268652635 21.559226865263504
28.5937731347365 28.047226865263504 2.3072268652634946
23.8927731347365 9.0156805957905 1.3377731347364996
23.38368059579051 24.8363194042095 18.884226865263493
25.895319404209502 2.8687731347365 10.2667731347365
17.7757731347365 28.9603194042095 15.4147731347365
21.801226865263494 22.3287731347365 12.4422268652635
12.770773134736501 11.934680595790496 1.2236805957904977
13.450773134736501 1.1582268652635008 21.503319404209503
11.8487731347365 6.114226865263497 19.2067731347365
4.0287731347365 22.3107731347365 29.5792268652635
28.664226865263494 24.6387731347365 29.581319404209502
12.859319404209504 0.7803194042095036 4.532680595790495
3.4877731347365 1.6762268652634944 28.4782268652635
25.477773134736502 2.2986805957905005 10.9407731347365
6.4587731347365 17.250226865263507 0.7057731347364999
14.1162268652635 20.608773134736502 18.446226865263505
20.202680595790497 21.9977731347365 23.1862268652635
30.7697731347365 5.468680595790502 15.0357731347365
6.583226865263498 25.340319404209502 18.3933194042095
7.005680595790494 7.636773134736501 19.197226865263495
16.956226865263496 10.7467731347365 24.3397731347365
21.8382268652635 19.496226865263502 29.2077731347365
31.7327731347365 12.3082268652635 6.8262268652635
27.5573194042095 13.8847731347365 20.9967731347365
0.46222686526349577 20.550773134736502 22.7162268652635
12.420226865263501 30.7873194042095 22.54168059579051
16.797226865263504 27.614773134736502 32.128773134736505
29.2743194042095 19.2357731347365 5.785226865263503
29.3532268652635 12.743680595790494 11.1417731347365
20.786226865263494 2.782226865263503 2.722680595790493
26.955226865263505 29.610226865263506 29.4493194042095
26.0552268652635 18.0977731347365 5.5852268652635
9.1787731347365 25.5747731347365 17.0867731347365
8.812226865263504 13.1637731347365 15.804226865263495
12.2607731347365 15.191226865263495 29.427773134736498
23.5353194042095 0.19768059579050146 5.220226865263498
22.8873194042095 0.9712268652634961 31.2767731347365
28.377226865263502 22.5213194042095 0.8717731347365003
1.4927731347365008 25.7282268652635 31.389319404209502
24.6567731347365 20.672226865263504 27.879226865263497
19.6107731347365 20.6532268652635 19.051226865263494
29.732319404209502 4.0317731347365005 29.3297731347365
3.8832268652635022 14.697226865263495 2.2246805957905025
22.619226865263506 21.0057731347365 27.7943194042095
27.875226865263507 12.9727731347365 22.7077731347365
23.8967731347365 18.7463194042095 29.282319404209503
29.9027731347365 6.303680595790496 30.3277731347365
13.8657731347365 21.649226865263493 18.292226865263494
18.190226865263504 23.5227731347365 3.961226865263498
6.053226865263504 12.7896805957905 17.8067731347365
3.907226865263503 15.7257731347365 22.2222268652635
31.9567731347365 6.267680595790495 26.0487731347365
19.1447731347365 10.5516805957905 23.1323194042095
6.9307731347365 4.437226865263504 1.6587731347365011
5.626773134736501 11.0777731347365 23.9933194042095
30.8277731347365 2.6052268652634964 24.1997731347365
26.864226865263497 0.639773134736501 1.0527731347364995
9.4512268652635 22.366226865263506 1.7737731347364996
28.266226865263498 23.313226865263495 9.5517731347365
3.5167731347365 24.3142268652635 31.8733194042095
17.510680595790504 30.6887731347365 1.0187731347365006
4.917226865263501 23.819226865263495 28.416773134736502
18.318226865263505 19.4177731347365 26.137226865263493
1.225680595790493 1.9382268652634949 19.7177731347365
28.2907731347365 0.21413432631750595 0.19222686526349975
2.385680595790504 19.9067731347365 5.178226865263504
0.7502268652634996 21.5987731347365 3.4772268652634963
23.239773134736502 12.288226865263503 7.345226865263498
28.655226865263494 9.213773134736499 28.869773134736498
18.9122268652635 10.839226865263498 25.1707731347365
29.9422268652635 29.4047731347365 15.039226865263501
23.7327731347365 6.921773134736501 23.9947731347365
28.8347731347365 17.0157731347365 6.394226865263498
13.1247731347365 5.142680595790495 22.520226865263503
24.1487731347365 7.2607731347365 2.2607731347364997
13.333319404209501 28.3046805957905 8.726226865263499
15.2772268652635 19.5057731347365 14.6317731347365
24.0797731347365 31.073680595790506 22.879226865263497
26.3887731347365 18.4987731347365 10.005226865263502
15.6933194042095 6.346680595790502 7.868226865263502
27.9507731347365 24.3137731347365 3.4967731347365003
24.2012268652635 18.1002268652635 9.602226865263496
12.5367731347365 26.8857731347365 19.8697731347365
26.9717731347365 17.518226865263493 5.311680595790506
31.2527731347365 22.8286805957905 2.7772268652635006
31.9753194042095 5.722773134736499 0.030680595790499865
28.7653194042095 26.253319404209503 24.3133194042095
11.2132268652635 13.275226865263498 2.4672268652634983
31.7027731347365 19.4907731347365 20.3696805957905
15.464680595790497 21.721226865263496 30.0747731347365
13.892319404209498 4.5487731347365 28.091680595790507
17.1417731347365 10.8527731347365 6.756680595790499
1.716773134736501 2.6332268652635022 16.7417731347365
4.4847731347365 9.5302268652635 1.9867731347365005
7.313680595790501 16.357226865263506 5.892226865263503
17.5462268652635 27.928773134736502 8.5387731347365
12.5987731347365 6.248773134736501 23.839226865263505
17.6617731347365 7.6727731347365005 19.3877731347365
7.335319404209503 2.924773134736501 21.7737731347365
8.5007731347365 10.514226865263502 0.41822686526349884
28.8917731347365 3.899773134736501 29.705226865263505
2.488226865263499 14.098226865263499 19.7897731347365
20.102226865263496 23.6407731347365 23.253319404209503
25.236773134736502 13.9577731347365 25.4157731347365
16.4337731347365 10.590226865263496 31.5667731347365
29.3177731347365 24.2877731347365 9.7557731347365
27.1802268652635 16.938226865263495 12.3547731347365
15.9193194042095 11.016226865263498 0.1427731347365011
17.0852268652635 11.7467731347365 24.052680595790505
9.8412268652635 13.0447731347365 15.424680595790505
5.427226865263499 31.8993194042095 21.564773134736498
20.1427731347365 9.4942268652635 13.5377731347365
13.141226865263498 29.018226865263493 6.6892268652635
4.892680595790495 17.955680595790497 21.4607731347365
2.0012268652634972 27.8867731347365 3.3612268652634967
9.334226865263496 5.551226865263494 2.165680595790505
0.5886805957904926 16.691226865263495 31.1243194042095
0.05168059579050066 31.361226865263497 24.9127731347365
22.3813194042095 30.1943194042095 10.066680595790501
19.4027731347365 1.9102268652635033 6.9392268652635
7.485680595790498 26.8967731347365 14.2247731347365
27.9097731347365 23.0153194042095 0.7856805957904953
6.021773134736501 10.7472268652635 27.804226865263495
29.751226865263497 22.845226865263506 7.7287731347365
26.967226865263505 18.1473194042095 8.3647731347365
4.763226865263498 28.5943194042095 11.6617731347365
6.469773134736501 3.8977731347365 3.0372268652634986
12.395226865263503 31.690773134736503 23.553680595790496
29.780226865263494 29.3333194042095 21.8927731347365
8.337226865263496 19.7867731347365 0.7835880568445077
19.470226865263506 22.3837731347365 24.2623194042095
28.833226865263505 24.120773134736503 10.6753194042095
18.2987731347365 12.6252268652635 22.2757731347365
15.214680595790497 20.652226865263493 19.3063194042095
27.047773134736502 13.5307731347365 27.6647731347365
3.719680595790493 28.044226865263504 17.0987731347365
6.6897731347365 14.0077731347365 10.779226865263503
23.2087731347365 10.6907731347365 11.4747731347365
11.9407731347365 10.429226865263495 24.5303194042095
25.789226865263494 20.2962268652635 26.9457731347365
22.002226865263502 22.689773134736498 3.2312268652635012
19.584319404209502 16.529226865263503 26.555773134736498
18.489226865263497 12.2877731347365 31.8593194042095
31.065773134736503 21.5737731347365 28.7127731347365
10.084226865263496 2.471226865263496 8.976319404209502
29.6592268652635 18.717226865263505 5.290226865263499
4.6551343263175085 22.6767731347365 11.023226865263503
9.150680595790504 21.7812268652635 11.851226865263499
20.1477731347365 18.926226865263494 16.086680595790497
20.9313194042095 1.535134326317504 24.7877731347365
23.6047731347365 22.7487731347365 7.077226865263505
26.937865673682495 1.8786805957904988 20.7767731347365
5.577226865263505 6.9162268652635035 25.3973194042095
26.391226865263498 24.405226865263494 31.5967731347365
21.2027731347365 10.1407731347365 2.4366805957905058
7.340319404209499 5.9562268652634955 20.1947731347365
23.211226865263505 23.8387731347365 23.9027731347365
24.258226865263502 28.8843194042095 15.0522268652635
10.5327731347365 21.9857731347365 5.949319404209501
9.234226865263501 10.810226865263495 14.337226865263496
26.785773134736502 0.5162268652634978 25.4547731347365
17.8813194042095 16.999226865263502 27.03886567368251
19.557226865263495 4.484226865263501 4.2502268652635
23.4157731347365 15.739226865263497 31.993865673682507
31.6916805957905 29.9842268652635 21.1567731347365
6.2622268652635 17.480773134736502 15.970226865263506
30.114865673682502 15.735226865263499 4.376226865263497
17.8652268652635 11.1667731347365 9.095319404209501
28.2812268652635 21.9127731347365 0.3842268652634999
17.7827731347365 23.9927731347365 23.3187731347365
0.4402268652635044 26.571226865263505 18.474226865263496
2.674226865263499 25.9357731347365 17.5433194042095
19.3127731347365 3.354226865263499 6.521773134736501
24.1952268652635 31.738226865263506 15.638680595790504
26.5307731347365 30.595226865263506 29.7693194042095
17.3412268652635 18.7842268652635 11.9052268652635
20.1953194042095 6.306226865263504 4.7527731347365005
24.8187731347365 3.2887731347365 20.3622268652635
5.641680595790504 17.4517731347365 7.498773134736501
15.070319404209503 28.0593194042095 28.552319404209502
26.6113194042095 0.4186805957905051 26.521226865263493
30.0377731347365 19.0927731347365 15.1307731347365
17.6287731347365 24.6567731347365 29.2087731347365
27.343319404209502 9.122773134736502 10.9037731347365
28.049319404209502 8.407226865263503 27.352773134736502
31.974773134736502 24.2203194042095 18.4497731347365
30.226865673682497 3.2682268652635003 6.027773134736501
13.615226865263502 16.875226865263507 15.604226865263499
20.5887731347365 8.810226865263495 27.626773134736503
16.4873194042095 11.576319404209503 15.845680595790498
26.0083194042095 29.4967731347365 16.0627731347365
13.5547731347365 13.968680595790502 28.296865673682504
6.348773134736501 30.5897731347365 3.6647731347364996
0.9562268652634955 20.4997731347365 19.767226865263503
0.8933194042095032 14.251226865263497 16.8934119431555
1.796226865263499 30.6037731347365 4.795226865263501
0.2517731347365011 0.5262268652635029 2.253680595790499
13.0267731347365 8.840226865263496 30.246226865263502
5.5062268652635 18.682226865263495 7.959680595790502
27.0317731347365 29.2097731347365 2.2707731347364994
29.052773134736498 0.5267731347364997 17.4727731347365
25.1677731347365 3.110226865263499 19.3017731347365
0.9672268652634983 27.224226865263496 31.930773134736498
4.983226865263497 24.747773134736498 30.792226865263494
23.0747731347365 3.718226865263496 11.2807731347365
7.745773134736501 18.9637731347365 13.7557731347365
31.8643194042095 14.513226865263498 17.345226865263506
18.051226865263494 1.3142268652634996 9.9747731347365
22.279226865263503 9.800226865263504 13.203773134736501
25.613773134736498 3.8957731347364994 26.2237731347365
16.5627731347365 19.172773134736502 12.1977731347365
16.6287731347365 17.7147731347365 21.2252268652635
9.525319404209501 0.22168059579050237 30.3837731347365
9.705680595790497 22.6952268652635 15.6667731347365
22.486226865263497 28.779865673682508 3.1887731347365005
20.7583194042095 19.8202268652635 29.5697731347365
7.9872268652635015 19.286226865263494 1.7332268652634966
27.1447731347365 9.833226865263498 17.9797731347365
13.693680595790497 19.925226865263504 18.7967731347365
9.490680595790494 27.2057731347365 28.6983194042095
20.607226865263506 6.6462268652635 28.0113194042095
11.6307731347365 8.5272268652635 29.370773134736503
16.386226865263502 29.666226865263503 31.9023194042095
25.8183194042095 5.935680595790501 0.9022268652635006
13.171226865263499 6.287773134736501 22.7402268652635
21.7523194042095 6.2376805957904935 16.8037731347365
11.2712268652635 5.6767731347365 29.375773134736498
2.206773134736501 5.9867731347365005 10.8137731347365
30.2057731347365 29.6917731347365 21.727226865263496
18.0327731347365 16.067773134736502 2.0762268652635
10.4807731347365 4.5167731347365 12.700773134736501
25.1976805957905 10.1222268652635 30.7402268652635
23.419773134736502 25.6247731347365 20.925773134736502
25.8907731347365 18.7873194042095 13.728134326317516
22.934226865263504 27.645226865263503 8.4357731347365
23.473226865263506 27.663773134736502 27.9313194042095
16.389319404209502 21.048226865263494 32.0443194042095
11.9387731347365 28.363226865263506 1.9203194042095042
17.4607731347365 21.223226865263506 25.241319404209502
6.303226865263504 9.348226865263499 19.977680595790503
27.337226865263496 25.6827731347365 23.1187731347365
22.13368059579051 13.971680595790502 31.602773134736502
2.164226865263501 5.695680595790506 25.6496805957905
30.108226865263497 25.0897731347365 20.491226865263506
6.488680595790498 31.408226865263494 3.339319404209501
21.605773134736502 15.5732268652635 20.6862268652635
0.19122686526349497 21.6623194042095 24.0453194042095
29.2893194042095 8.672226865263504 2.563226865263495
26.3773194042095 13.985226865263499 4.029226865263503
12.467319404209501 28.369773134736498 27.9567731347365
21.163226865263503 5.688226865263495 5.4632268652635005
5.985226865263499 0.1622268652634986 4.429319404209497
31.5642268652635 4.299773134736501 21.274226865263493
23.4047731347365 19.5317731347365 29.6887731347365
17.131773134736502 12.836226865263498 9.516226865263498
20.270226865263503 6.355680595790503 29.116319404209502
21.837226865263496 28.2783194042095 22.642226865263503
15.5187731347365 28.7257731347365 13.133680595790494
7.356226865263501 8.7187731347365 12.6027731347365
26.8237731347365 9.9602268652635 16.13968059579051
18.7637731347365 4.171226865263499 11.311773134736502
22.5303194042095 14.7472268652635 25.550226865263504
20.375319404209502 5.9077731347365 28.430773134736498
31.0187731347365 2.5472268652635037 5.7106805957904925
16.1007731347365 19.6137731347365 4.655773134736501
7.005226865263502 18.7593194042095 13.356680595790493
26.1183194042095 18.7747731347365 28.991226865263506
27.983773134736502 24.982226865263506 8.595226865263498
20.7737731347365 26.8717731347365 16.6182268652635
18.5282268652635 1.1017731347365007 28.8257731347365
11.6462268652635 10.016226865263498 25.8682268652635
