1.3336805957904971 30.755865673682507 3.6462268652635004
2.327680595790497 17.7907731347365 25.3107731347365
9.8752268652635 30.603865673682506 24.1577731347365
19.008226865263502 2.8647731347365006 22.970226865263506
13.874319404209498 7.236226865263497 28.6383194042095
22.3263194042095 8.403226865263498 9.149773134736499
30.4643194042095 1.9797731347365009 17.276319404209502
30.27068059579051 5.426226865263494 27.5057731347365
26.9147731347365 26.5307731347365 28.422773134736502
11.0367731347365 23.0972268652635 18.7177731347365
28.062773134736503 7.3307731347365 3.9387731347365005
25.593319404209502 21.1706805957905 22.012226865263493
28.2393194042095 15.9497731347365 28.177319404209502
17.280226865263494 1.6662268652635035 16.622319404209502
15.902773134736501 11.267773134736501 6.643680595790499
30.3407731347365 17.312226865263504 22.276319404209502
10.6087731347365 3.239680595790503 30.003319404209503
13.576680595790492 2.0537731347365007 21.026226865263503
22.3483194042095 15.791226865263503 13.235226865263499
2.4017731347364997 4.648226865263503 2.5242268652635005
5.0286805957905045 29.166226865263503 22.7083194042095
11.026773134736501 8.2442268652635 0.7907731347365008
6.6417731347365 28.6337731347365 32.1437731347365
25.274226865263493 5.026319404209499 27.2467731347365
19.7842268652635 23.0972268652635 3.3142268652634996
6.953226865263495 4.469226865263501 7.6507731347365
17.205226865263505 1.982226865263499 28.5747731347365
25.3412268652635 15.9467731347365 23.9907731347365
20.175773134736502 8.008226865263502 29.4967731347365
15.6723194042095 19.3997731347365 11.4207731347365
21.7937731347365 0.6452268652635027 28.9177731347365
9.001226865263497 27.922226865263504 12.589226865263498
7.091319404209504 1.4097731347365006 4.642226865263503
24.7553194042095 23.099773134736502 4.2287731347365
14.8057731347365 22.8027731347365 24.862680595790508
14.446680595790497 32.096226865263496 21.7883194042095
15.6967731347365 19.7842268652635 11.1127731347365
16.397680595790504 22.7992268652635 4.552226865263499
22.218226865263496 23.864773134736502 8.372680595790499
20.5657731347365 21.8973194042095 10.517226865263503
4.483680595790503 25.3407731347365 3.667226865263501
15.493226865263502 22.812226865263504 22.3927731347365
18.8993194042095 20.8537731347365 15.7207731347365
12.950773134736501 1.4897731347365006 4.9166805957904955
4.993680595790494 27.063226865263495 7.931226865263504
8.342226865263498 24.1377731347365 25.4983194042095
21.1077731347365 27.747773134736498 0.7557731347365007
1.4492268652635047 16.830226865263505 24.914226865263494
17.1207731347365 18.3747731347365 27.4752268652635
14.8477731347365 0.6952268652634999 23.0186805957905
6.665226865263499 26.3203194042095 31.181226865263504
27.638226865263498 2.4032268652634983 30.940773134736503
22.5867731347365 20.9953194042095 10.8352268652635
27.0342268652635 28.879226865263497 14.8352268652635
12.709226865263496 29.2867731347365 3.756680595790499
1.6617731347364995 23.9017731347365 24.4302268652635
25.1122268652635 29.967226865263505 6.636680595790494
20.608226865263497 28.227773134736502 21.199680595790497
7.074680595790497 10.3547731347365 14.145226865263503
20.089226865263505 29.724226865263496 28.385226865263498
24.7087731347365 21.3747731347365 29.7893194042095
31.1957731347365 25.498773134736503 0.5782268652634954
26.277226865263493 24.875773134736498 15.1772268652635
14.8437731347365 1.8372268652634958 22.464226865263505
9.8687731347365 3.928226865263504 16.107226865263506
4.215680595790502 16.5887731347365 20.425226865263504
13.4837731347365 3.252680595790494 3.8662268652634992
7.200773134736501 17.345226865263506 8.142773134736501
29.0207731347365 18.9797731347365 3.3777731347365005
11.723226865263499 16.4542268652635 2.175680595790496
9.697226865263495 0.22622686526349867 10.6377731347365
25.624226865263502 29.4597731347365 15.651226865263503
31.4587731347365 24.245226865263497 7.6997731347365
8.8267731347365 6.477226865263496 26.8913194042095
3.5517731347365 29.4643194042095 22.3177731347365
16.0887731347365 14.188226865263495 19.4657731347365
11.5582268652635 15.269226865263498 7.3496805957905025
29.6943194042095 4.1637731347365 28.8532268652635
14.975680595790493 8.5097731347365 7.3277731347365
5.1282268652635 26.6562268652635 23.150226865263498
23.7597731347365 24.9177731347365 4.0427731347365
15.543226865263499 29.372226865263507 23.8843194042095
14.517226865263503 14.4302268652635 30.943226865263505
26.138680595790504 30.3412268652635 18.4993194042095
2.9122268652634986 10.996226865263502 30.5347731347365
10.6927731347365 22.621226865263502 0.9972268652634995
25.733226865263497 10.546226865263499 7.136226865263502
30.250226865263507 10.8907731347365 16.9957731347365
26.824226865263505 28.315226865263504 20.780226865263494
3.1806805957905055 10.587680595790502 7.550773134736501
20.578226865263495 4.015680595790499 3.2092268652634957
15.8382268652635 12.0426805957905 4.991680595790498
11.2012268652635 21.905226865263494 32.00622686526349
11.3537731347365 15.979680595790498 14.414226865263501
10.3077731347365 1.2472268652634995 31.9007731347365
14.0797731347365 0.9846805957904934 26.6922268652635
12.3067731347365 12.2652268652635 10.1557731347365
10.550226865263504 21.3977731347365 17.9097731347365
12.0367731347365 20.4207731347365 11.575773134736501
15.9997731347365 1.7302268652634964 14.9327731347365
22.1357731347365 20.7973194042095 29.0413194042095
26.8592268652635 30.7177731347365 7.532226865263503
12.742226865263497 27.6097731347365 8.747773134736502
22.733773134736502 19.9662268652635 29.561773134736498
7.1547731347365 4.854226865263499 6.051680595790501
16.5457731347365 12.061773134736502 6.360226865263499
2.0272268652635006 13.428226865263504 9.923226865263501
14.569319404209498 18.474680595790502 20.2927731347365
22.803773134736502 20.678773134736502 19.8397731347365
12.6327731347365 3.8552268652634964 22.120226865263497
19.0067731347365 22.989773134736502 3.6732268652635014
15.832319404209503 13.708226865263498 20.4463194042095
3.6243194042094977 26.5907731347365 13.920319404209504
29.3408656736825 0.08868059579049259 13.259319404209503
2.374680595790494 32.0216805957905 3.5637731347365005
3.7472268652634995 7.8992268652635005 24.2657731347365
0.1266805957905035 20.8627731347365 18.4307731347365
12.2577731347365 14.538226865263503 7.883680595790494
24.998773134736503 0.4256805957904959 2.562773134736501
2.630226865263502 15.793773134736501 25.1682268652635
8.693226865263505 7.832773134736501 19.9417731347365
25.0857731347365 28.0937731347365 14.636226865263502
17.2897731347365 20.2447731347365 22.4627731347365
8.3137731347365 14.8262268652635 23.669773134736502
31.1567731347365 1.8012268652634944 10.2832268652635
0.5687731347364995 13.684226865263504 24.980773134736502
20.1827731347365 8.577226865263505 29.9523194042095
29.3843194042095 20.8257731347365 26.241773134736498
3.8347731347364995 27.220226865263506 13.105865673682501
8.079680595790492 5.583226865263498 7.5237731347365
11.501226865263497 17.407226865263503 7.797226865263504
25.172773134736502 11.026226865263503 27.389226865263502
31.1802268652635 30.996226865263502 4.0477731347365005
4.834226865263496 3.621226865263502 7.1127731347365
10.725680595790493 17.271226865263493 7.180226865263499
18.7027731347365 7.0792268652635 26.0743194042095
1.4127731347365007 4.944226865263495 4.659773134736501
28.6477731347365 24.442865673682505 17.1682268652635
0.6067731347364997 17.5977731347365 24.372319404209502
16.2042268652635 17.5127731347365 1.9427731347365
12.366773134736501 25.52068059579051 21.234680595790508
27.4023194042095 16.6813194042095 3.306226865263504
11.276773134736501 24.3703194042095 17.613226865263506
22.025226865263498 31.372773134736498 26.5337731347365
11.7987731347365 15.773226865263503 7.696226865263505
11.8337731347365 19.436319404209502 13.4437731347365
29.3287731347365 18.398226865263503 18.574226865263505
15.537226865263499 12.725680595790493 5.350680595790493
25.678226865263504 22.4277731347365 19.5527731347365
5.7642268652635025 32.0607731347365 5.9307731347365
20.849773134736502 1.7736805957904949 2.5047731347364994
29.299319404209502 14.0032268652635 16.9542268652635
17.742680595790503 3.6222268652634995 0.2437731347365002
20.8237731347365 18.3117731347365 18.8297731347365
24.3717731347365 25.315773134736503 16.1377731347365
1.4787731347364996 16.831226865263496 18.9647731347365
19.599226865263496 23.292226865263494 16.9993194042095
25.3477731347365 7.507680595790504 18.3917731347365
16.6092268652635 23.0067731347365 4.513226865263498
16.9187731347365 17.5767731347365 27.3063194042095
0.02622686526350293 23.903680595790505 7.9877731347365
10.0217731347365 14.394226865263498 12.5057731347365
1.8836805957904943 18.162680595790505 1.0476805957904958
0.833226865263498 23.6952268652635 8.583226865263498
31.433773134736498 15.962226865263496 25.4512268652635
27.2872268652635 14.2072268652635 27.4637731347365
16.142226865263503 19.7102268652635 31.0057731347365
13.618226865263502 0.5847731347364995 0.09522686526349844
29.1717731347365 1.1367731347365009 19.276226865263503
18.050226865263504 14.057226865263495 26.805773134736498
22.675773134736502 1.4636805957904926 15.6277731347365
22.7222268652635 26.620226865263497 0.6087731347365004
17.8397731347365 11.036226865263501 6.0142268652635025
23.6136805957905 23.8457731347365 8.736226865263497
15.3046805957905 24.913226865263503 5.5762268652635
30.0133194042095 29.811319404209502 26.0953194042095
1.5956805957904976 11.9487731347365 31.0737731347365
10.5792268652635 20.1307731347365 29.2047731347365
13.770773134736501 5.0682268652635045 10.413226865263503
10.9267731347365 5.677226865263499 16.242226865263497
1.437773134736501 12.979226865263499 18.0822268652635
19.9077731347365 11.031226865263498 26.931226865263504
31.946226865263505 29.374226865263502 3.1767731347365
25.149226865263493 24.309773134736503 27.212226865263496
8.618226865263502 19.7957731347365 32.114773134736495
30.6407731347365 21.7447731347365 7.141226865263498
9.5032268652635 16.9482268652635 6.0237731347365
15.288680595790495 16.614226865263497 12.7497731347365
0.5026805957904941 21.557226865263495 29.803773134736502
15.6727731347365 17.5552268652635 26.2067731347365
31.2932268652635 20.1383194042095 4.969773134736501
21.1297731347365 9.662319404209502 11.237226865263501
29.5167731347365 17.072226865263495 1.141680595790504
12.004226865263497 7.575680595790502 15.5607731347365
11.154680595790495 12.7467731347365 17.4877731347365
4.1892268652635 16.625226865263507 26.5623194042095
12.376226865263497 3.728226865263501 20.6563194042095
7.5242268652635005 4.1377731347365 20.2042268652635
22.6153194042095 2.0412268652635035 29.529226865263503
18.033226865263494 21.158226865263494 20.2023194042095
12.549319404209502 0.5387731347365001 16.271226865263493
26.815773134736503 10.914226865263501 29.9963194042095
17.6832268652635 4.5797731347365005 22.837226865263496
2.137680595790499 24.9007731347365 27.146226865263493
24.685226865263495 20.675773134736502 3.917319404209504
5.3987731347365 16.7587731347365 25.6747731347365
4.725680595790493 16.2987731347365 24.2157731347365
30.003773134736498 19.2767731347365 18.2327731347365
28.6077731347365 13.395773134736501 18.2597731347365
10.300226865263504 29.9597731347365 4.0762268652635
23.098226865263506 5.308226865263499 19.1397731347365
16.3682268652635 27.522226865263498 2.5612268652634995
25.1772268652635 15.4117731347365 12.136226865263502
25.277226865263493 29.0407731347365 9.2507731347365
5.3427731347365 11.7626805957905 23.0157731347365
10.029773134736502 24.980773134736502 5.313226865263495
5.0792268652635 15.3707731347365 13.3737731347365
3.908226865263501 24.2527731347365 9.210680595790492
16.0167731347365 18.7837731347365 2.9402268652635044
11.203226865263495 19.9897731347365 12.3262268652635
11.1407731347365 2.4397731347365 15.3267731347365
22.1817731347365 29.236773134736502 26.1603194042095
19.269226865263498 29.887226865263493 17.7902268652635
2.705226865263505 24.7177731347365 25.122773134736498
11.642773134736501 29.258226865263502 8.6417731347365
11.070680595790506 19.6343194042095 24.279226865263503
9.358226865263497 28.7117731347365 27.8717731347365
7.5807731347365 6.186680595790506 7.583680595790497
2.2587731347365008 8.171226865263499 26.3202268652635
27.687773134736503 15.7042268652635 29.7127731347365
24.2626805957905 16.608226865263497 13.769680595790504
22.325226865263495 14.4647731347365 7.117773134736501
9.0977731347365 1.0257731347365002 25.798226865263494
11.019226865263498 28.407226865263503 26.851680595790498
17.628865673682498 10.659226865263498 21.7513194042095
19.9643194042095 24.6397731347365 27.026319404209502
31.7833194042095 14.1247731347365 22.873226865263497
16.114226865263497 13.0522268652635 12.2477731347365
31.327226865263505 22.142319404209502 28.5253194042095
16.168680595790505 25.5413194042095 9.3227731347365
28.863226865263506 10.288226865263503 4.0072268652634975
22.209226865263496 6.5577731347365 19.4387731347365
3.1447731347365 3.2332268652634966 31.047773134736502
29.669226865263504 18.724773134736502 16.6417731347365
8.059226865263504 22.580680595790497 24.361680595790503
2.408226865263501 9.535226865263503 28.7402268652635
9.840226865263496 4.6647731347365 15.363773134736501
3.4886805957904983 13.555680595790506 31.5762268652635
9.049226865263499 30.7687731347365 5.1287731347365
30.3172268652635 20.5347731347365 27.8427731347365
26.808773134736498 2.5827731347365006 26.6772268652635
22.234680595790508 20.2737731347365 0.12622686526349725
4.649773134736501 16.9517731347365 11.381680595790499
15.175680595790496 7.969226865263501 1.6056805957905027
8.0217731347365 19.7957731347365 30.724226865263496
10.9617731347365 0.2627731347365003 10.776773134736501
24.7953194042095 21.6033194042095 18.352226865263496
16.187226865263504 26.6832268652635 3.6452268652635027
4.187226865263504 3.1636805957904954 27.503226865263507
0.9957731347365009 22.2453194042095 0.5482268652635014
0.27522686526349815 0.20468059579049225 12.5357731347365
30.5857731347365 31.4037731347365 12.598226865263499
23.0337731347365 32.0533194042095 28.1107731347365
2.2406805957904936 31.041226865263503 2.0182268652635003
16.4867731347365 25.965319404209502 14.432226865263495
17.8377731347365 5.9177731347365 16.0607731347365
19.9437731347365 23.500226865263507 15.2787731347365
22.7587731347365 12.607226865263499 19.120226865263497
23.3833194042095 27.5857731347365 25.9037731347365
0.5272268652635006 14.3427731347365 11.505226865263502
8.7217731347365 29.504865673682502 18.7072268652635
22.7813194042095 9.5367731347365 28.5687731347365
31.244773134736498 1.6387731347364998 11.5807731347365
18.217226865263505 8.7543194042095 18.4257731347365
26.7757731347365 14.1567731347365 21.1703194042095
14.2087731347365 14.9097731347365 25.3303194042095
2.7116805957904973 10.707680595790492 4.456773134736501
20.249226865263502 6.3597731347365 6.807226865263495
8.575773134736501 14.0612268652635 23.439319404209503
4.066773134736501 3.860226865263499 28.2073194042095
16.9632268652635 17.7393194042095 14.8357731347365
12.5972268652635 16.5797731347365 7.057226865263495
24.3217731347365 4.846680595790502 32.169226865263504
19.3352268652635 16.011319404209498 25.1707731347365
16.4397731347365 23.874226865263502 2.367680595790503
10.1797731347365 20.430319404209502 31.9677731347365
19.3622268652635 22.124226865263502 9.920226865263501
13.845680595790498 3.2097731347364995 6.743226865263502
0.47868059579049316 9.7412268652635 31.146226865263493
7.136773134736501 7.296226865263499 28.1043194042095
9.8077731347365 31.4847731347365 25.453226865263495
3.624226865263502 30.836226865263505 23.890226865263493
14.930680595790506 32.1667731347365 22.9977731347365
22.227773134736502 18.934226865263504 0.06277313473649926
2.214226865263498 26.6477731347365 14.093226865263496
18.669226865263504 13.301319404209497 1.2613194042094982
2.4943194042095023 21.598226865263506 14.5197731347365
26.5667731347365 1.8956805957904947 21.5307731347365
28.5347731347365 18.2566805957905 2.052226865263499
2.5907731347364997 15.121680595790494 25.4473194042095
31.119226865263506 23.151226865263503 32.0613194042095
25.7493194042095 5.2561343263175075 5.294226865263504
21.6553194042095 3.6646805957905 11.6587731347365
24.3082268652635 13.273319404209499 21.239226865263497
29.491773134736498 0.7416805957904984 11.6327731347365
3.6652268652634987 12.206773134736501 29.764226865263502
18.622226865263507 2.3212268652635046 18.0907731347365
12.5107731347365 29.238226865263506 19.980773134736502
22.479226865263506 17.349773134736502 11.3872268652635
20.306226865263504 7.835773134736501 10.456226865263496
8.151319404209499 19.8703194042095 11.9632268652635
12.9167731347365 3.113226865263499 22.1567731347365
8.720226865263498 1.854680595790498 1.2697731347365
9.127226865263502 1.4762268652634987 26.4263194042095
1.678226865263504 31.1457731347365 32.0213194042095
23.0757731347365 21.8717731347365 8.5212268652635
14.584773134736501 6.3597731347365 0.22622686526349867
29.892319404209502 9.708226865263498 8.3547731347365
3.7642268652635025 14.873226865263497 25.968226865263496
24.4543194042095 5.931773134736501 0.6112268652634967
21.9097731347365 29.0867731347365 26.9817731347365
3.5982268652634986 32.1717731347365 11.6567731347365
0.07577313473650094 22.3807731347365 31.660773134736502
27.312773134736503 1.8396805957904974 5.3822268652634975
20.691226865263495 2.479680595790498 1.9957731347365009
10.7147731347365 6.499226865263502 16.5792268652635
6.9362268652634995 0.35122686526349867 0.5412268652635035
4.3262268652635 24.3562268652635 14.883680595790494
3.1477731347365 26.7147731347365 12.924226865263499
23.524226865263493 19.054226865263495 20.3447731347365
10.523865673682508 28.719411943155492 22.493411943155493
20.062226865263504 22.169226865263504 9.964226865263498
25.1503194042095 8.9817731347365 17.0462268652635
16.797226865263504 28.499226865263502 2.8906805957904993
10.082680595790492 31.2127731347365 27.1937731347365
0.3091343263175048 2.9056805957905 21.3863194042095
25.6122268652635 29.0107731347365 15.258226865263502
11.199226865263505 9.367773134736499 0.16022686526350327
16.4482268652635 17.1017731347365 26.8427731347365
5.662226865263499 31.3567731347365 15.599226865263496
26.4627731347365 8.109680595790493 10.375680595790499
8.688680595790501 27.580226865263505 14.020226865263503
22.849226865263496 23.3117731347365 8.151773134736501
5.029226865263503 25.7842268652635 28.8387731347365
5.732226865263499 6.833226865263498 22.577226865263505
16.9157731347365 23.5747731347365 4.8827731347364995
24.911226865263494 16.9377731347365 15.237680595790493
21.8437731347365 26.234680595790508 7.7857731347365
10.856226865263501 7.1282268652635 27.372319404209502
15.303226865263504 13.426226865263494 29.848226865263506
5.1227731347365 3.9137731347365 6.8622268652635015
27.758226865263502 18.5036805957905 5.597226865263501
14.479226865263499 3.2246805957905025 7.8987731347365
5.5077731347364995 17.792226865263494 18.634226865263493
10.946680595790497 13.583226865263498 13.812226865263504
9.6887731347365 19.875226865263507 26.4757731347365
10.9497731347365 19.3037731347365 2.7501343263175073
29.6187731347365 24.669773134736502 9.5533194042095
21.2842268652635 8.485773134736501 20.5957731347365
10.082680595790492 27.928773134736502 24.8442268652635
25.4587731347365 18.027226865263493 15.845226865263498
30.0237731347365 3.8367731347365 31.7962268652635
4.469773134736501 10.5427731347365 15.418773134736501
20.8637731347365 14.930319404209502 0.18477313473650092
30.8537731347365 15.8407731347365 24.857226865263506
17.4223194042095 24.6187731347365 2.597680595790493
7.232680595790498 3.6662268652635035 20.8737731347365
17.3647731347365 19.6643194042095 7.847226865263501
19.067773134736502 26.1397731347365 20.4677731347365
16.0817731347365 1.7016805957904921 16.4026805957905
5.773680595790495 5.2532268652635 31.669773134736502
23.045226865263494 7.610226865263499 1.8977731347365001
21.274226865263493 7.188226865263495 8.8327731347365
1.3172268652634997 25.145226865263503 27.525226865263498
14.251226865263497 2.388680595790504 9.825226865263495
16.017226865263503 29.2293194042095 0.7907731347365008
1.2656805957904993 30.027226865263493 3.591773134736501
19.9277731347365 31.2177731347365 22.9153194042095
2.5612268652634995 25.269226865263498 13.7917731347365
10.133226865263502 21.2907731347365 12.578226865263495
6.539226865263501 10.089226865263498 11.705680595790497
19.791773134736502 23.1122268652635 10.123226865263497
17.760226865263498 8.4717731347365 21.9187731347365
19.1113194042095 12.035226865263503 0.8122268652635043
22.1532268652635 27.7817731347365 1.3157731347365011
24.736773134736502 13.1037731347365 10.2867731347365
28.9157731347365 31.5373194042095 13.3127731347365
1.661226865263501 18.2583194042095 10.251226865263497
14.969680595790493 19.0672268652635 15.3842268652635
11.5337731347365 18.9917731347365 29.0307731347365
27.6892268652635 7.126226865263497 14.6097731347365
19.6267731347365 11.0627731347365 28.105226865263496
24.286226865263494 29.712226865263496 9.919680595790496
21.480226865263496 2.989226865263497 12.1297731347365
3.7187731347365 20.361226865263497 16.8532268652635
29.346319404209503 28.9677731347365 24.875773134736498
16.5642268652635 18.7607731347365 1.3736805957905034
19.2487731347365 28.7227731347365 12.8447731347365
29.024226865263493 10.7117731347365 9.037226865263499
0.5616805957905058 30.2037731347365 2.293226865263499
26.1977731347365 13.9417731347365 19.846319404209503
26.0027731347365 24.019226865263498 2.2397731347365006
12.6417731347365 11.249226865263502 2.6083194042094995
10.963773134736499 22.6652268652635 18.578226865263495
28.88068059579051 13.904134326317504 4.907680595790495
4.0883194042095035 7.812773134736501 22.1427731347365
26.5552268652635 28.2423194042095 21.9187731347365
28.2707731347365 32.0757731347365 29.821226865263505
14.511226865263502 24.2008656736825 14.9266805957905
9.842226865263498 29.4893194042095 26.3407731347365
3.181226865263504 10.038226865263503 30.760226865263498
7.208226865263498 0.09368059579050225 12.9427731347365
25.658226865263494 0.6182268652635017 7.371680595790494
4.024773134736501 16.9337731347365 1.711226865263498
1.2412268652634992 31.3353194042095 3.880680595790494
4.300226865263504 9.782226865263503 15.485773134736501
2.7267731347365007 26.660226865263503 29.4663194042095
1.2116805957904973 26.876773134736503 9.243680595790494
1.0912268652635007 10.0837731347365 28.4773194042095
31.3682268652635 21.5612268652635 19.8657731347365
2.6822268652634946 10.828226865263495 27.8743194042095
7.0152268652635 10.279226865263503 11.5827731347365
9.8657731347365 18.3613194042095 23.435226865263495
2.2652268652635 25.035773134736502 2.540773134736501
17.7997731347365 4.705680595790497 23.9993194042095
30.3937731347365 30.134226865263493 25.6357731347365
12.2132268652635 13.054226865263495 12.8657731347365
8.611226865263497 27.206226865263496 15.1057731347365
26.774226865263493 23.3696805957905 9.936680595790506
19.2067731347365 16.627226865263502 24.5777731347365
0.749680595790494 4.1387731347365 21.5342268652635
22.6067731347365 10.629226865263497 3.2776805957904998
24.123773134736503 27.9332268652635 14.2883194042095
27.7543194042095 10.356226865263501 30.6473194042095
2.956773134736501 13.7562268652635 29.625319404209502
12.3217731347365 8.6252268652635 23.0957731347365
9.130226865263502 14.598226865263499 18.3147731347365
15.8037731347365 2.2787731347365003 28.9332268652635
19.4833194042095 15.617226865263497 24.083226865263505
31.5282268652635 20.1857731347365 6.127226865263502
20.9733194042095 14.091773134736501 1.2106805957904925
22.1933194042095 21.0687731347365 18.750319404209502
12.183680595790506 1.8736805957905034 7.406680595790505
26.4662268652635 6.336226865263498 15.352226865263496
2.5682268652635045 4.2516805957905035 2.174773134736501
18.972680595790507 24.617773134736503 27.2877731347365
17.203226865263495 18.5437731347365 1.0857731347365007
20.283226865263494 13.1347731347365 0.687773134736501
12.1627731347365 26.636226865263502 29.495226865263497
23.667226865263494 13.393319404209503 11.080226865263505
30.7167731347365 11.3202268652635 22.1557731347365
14.9107731347365 7.827680595790497 6.5642268652635
26.9547731347365 16.1777731347365 8.8297731347365
26.036226865263494 31.633226865263502 6.460773134736501
27.405226865263494 8.9197731347365 31.7037731347365
24.816226865263495 28.2257731347365 15.6547731347365
13.8947731347365 23.227226865263496 28.9903194042095
7.886134326317503 7.358226865263497 32.0972268652635
20.375865673682497 6.238226865263499 7.597680595790493
28.8517731347365 23.8733194042095 3.550226865263504
26.589680595790497 7.277226865263501 14.253680595790499
0.6966805957904967 4.1792268652634945 22.1507731347365
10.0612268652635 8.7412268652635 4.9512268652635
24.123226865263497 29.15768059579051 25.3377731347365
24.827226865263505 15.365319404209497 10.370680595790503
6.990226865263502 27.039226865263494 12.732226865263499
19.8877731347365 30.4177731347365 16.0137731347365
25.414226865263494 1.8802268652635021 25.181773134736503
6.5002268652635 5.920226865263501 31.6097731347365
0.6447731347365 14.877226865263502 26.111773134736502
1.8377731347364996 15.724226865263496 16.8517731347365
11.177680595790505 19.474226865263496 21.4703194042095
8.851226865263499 0.08677313473650017 25.916773134736502
16.752226865263502 8.8107731347365 0.18522686526349474
21.4657731347365 22.4637731347365 21.803773134736502
3.3686805957904937 8.2592268652635 12.2187731347365
12.525226865263498 20.7267731347365 11.706773134736501
3.7637731347364998 16.9847731347365 10.673226865263501
11.4677731347365 9.8747731347365 29.614773134736502
22.2327731347365 26.7807731347365 5.806680595790496
9.6462268652635 20.6597731347365 23.6353194042095
30.358226865263497 20.3112268652635 17.7132268652635
19.7933194042095 6.645226865263503 5.370773134736501
10.5186805957905 15.8657731347365 8.730226865263496
7.0927731347365 5.121226865263502 9.609226865263501
9.4997731347365 20.7317731347365 28.3407731347365
12.909226865263498 0.7382268652634991 15.144226865263498
30.186773134736498 29.352226865263496 25.729226865263506
18.2927731347365 19.0582268652635 9.156680595790505
10.543773134736501 20.1682268652635 30.090319404209502
19.877226865263502 3.9932268652635017 24.6333194042095
19.0027731347365 4.4107731347365 25.8052268652635
25.128226865263507 16.3172268652635 9.1607731347365
9.142226865263503 31.9153194042095 11.079680595790492
16.7312268652635 12.5587731347365 7.7737731347365
30.180319404209502 29.0337731347365 24.6032268652635
16.884226865263493 11.8197731347365 18.9062268652635
7.919680595790496 15.154226865263503 1.0781343263175103
22.669773134736502 16.008226865263502 32.0883194042095
13.1767731347365 2.549226865263499 20.825319404209502
0.4222268652635037 22.2007731347365 8.183773134736501
26.7827731347365 27.1843194042095 20.0306805957905
14.6097731347365 17.883226865263502 20.3442268652635
23.0027731347365 22.9793194042095 10.1907731347365
19.892226865263503 25.8517731347365 20.2877731347365
3.9287731347365007 4.746226865263502 1.319226865263495
26.1703194042095 6.1827731347365 12.1466805957905
22.334319404209502 9.641680595790504 1.8992268652635005
17.218226865263496 28.584319404209502 0.5047731347364994
16.9783194042095 2.292226865263501 18.178226865263504
15.794680595790496 26.5403194042095 3.2782268652634983
20.1983194042095 31.7343194042095 27.513411943155504
18.151226865263503 2.214226865263498 11.193680595790497
2.3512268652634987 8.791226865263503 26.933319404209502
31.7077731347365 9.236226865263497 21.6597731347365
30.848226865263506 13.632680595790504 17.3033194042095
2.1053194042094994 10.614226865263497 30.9457731347365
29.0497731347365 17.5317731347365 0.8172268652634997
4.110773134736501 9.636226865263502 15.106226865263501
19.6397731347365 27.616226865263506 21.0697731347365
30.648319404209502 31.863773134736498 13.9747731347365
28.7227731347365 18.5402268652635 16.6047731347365
17.300226865263504 20.6137731347365 17.0157731347365
6.797226865263504 15.659319404209501 0.41368059579049543
5.273226865263503 5.908226865263501 0.8742268652635019
13.495226865263497 12.3172268652635 24.6783194042095
16.0567731347365 4.408226865263501 7.672680595790496
3.2247731347365 16.6493194042095 27.6013194042095
4.549680595790505 20.378773134736498 7.8297731347365005
9.7687731347365 17.982226865263506 6.0726805957905015
6.956773134736501 30.471319404209503 5.507680595790504
8.1877731347365 27.0827731347365 8.809226865263504
9.568226865263505 28.4463194042095 12.324680595790497
17.8537731347365 23.3197731347365 18.1517731347365
15.1522268652635 17.6967731347365 20.1997731347365
13.962226865263496 0.23622686526349668 7.302226865263499
7.114773134736501 2.339226865263498 19.9457731347365
10.551226865263494 22.0743194042095 10.2017731347365
26.216680595790507 15.744319404209502 11.555773134736501
6.472680595790493 29.7953194042095 5.9977731347365
21.678680595790496 18.0113194042095 6.049226865263499
19.5942268652635 9.593680595790502 27.273319404209502
17.3363194042095 10.620680595790503 22.8813194042095
30.3797731347365 16.860226865263506 23.274226865263493
23.2553194042095 4.691773134736501 24.802773134736498
6.499226865263502 24.592226865263505 31.3937731347365
10.7817731347365 13.6903194042095 13.4097731347365
0.5772268652635049 22.1437731347365 21.5497731347365
23.6363194042095 14.365134326317502 6.5882268652635005
5.691226865263495 3.4622268652634958 15.6227731347365
14.782226865263503 5.745680595790503 6.141680595790504
6.5152268652635 12.584773134736501 23.416226865263503
2.424226865263499 13.525226865263498 6.967226865263498
21.3417731347365 20.143226865263493 31.3773194042095
0.5092268652634999 2.7772268652635006 10.270773134736501
9.051226865263494 30.3133194042095 5.057226865263495
28.121226865263502 7.6707731347365 12.4206805957905
24.7717731347365 24.620226865263497 14.8627731347365
14.3722268652635 13.2117731347365 2.0937731347365
29.1772268652635 23.1437731347365 24.663226865263503
21.901319404209502 7.6227731347365 9.359226865263501
1.6463194042095033 3.854865673682511 8.918680595790505
7.2866805957905 29.124226865263502 32.0177731347365
8.4302268652635 14.299226865263499 30.125319404209502
25.9727731347365 1.478226865263501 6.674226865263499
2.6057731347365003 15.6667731347365 7.0682268652635045
3.6127731347365 7.520226865263503 23.486226865263497
7.3337731347365 12.7913194042095 29.1547731347365
29.657226865263503 13.093680595790502 2.863226865263499
17.755226865263502 24.8867731347365 13.0187731347365
16.913226865263503 17.610319404209502 13.273226865263503
20.999226865263502 27.025226865263498 20.1182268652635
23.834226865263496 21.423226865263494 26.6763194042095
16.7962268652635 18.791773134736502 16.056226865263504
2.6012268652634987 14.3807731347365 8.5957731347365
30.261226865263502 19.7847731347365 12.1927731347365
30.995226865263497 26.0702268652635 29.660226865263503
23.2723194042095 10.820680595790506 5.3877731347365
28.8887731347365 0.485226865263499 19.5907731347365
15.097319404209504 5.900226865263498 8.5607731347365
31.482319404209502 14.4707731347365 12.273773134736501
18.539226865263494 19.7227731347365 7.9237731347365
19.732226865263506 25.989226865263497 19.5657731347365
19.684226865263504 3.5877731347364996 1.694226865263495
29.408226865263494 11.3557731347365 0.9437731347364995
12.370226865263497 20.6706805957905 6.129773134736499
4.165226865263499 11.217226865263498 30.413773134736502
2.0626805957904963 10.650680595790504 5.225680595790493
29.608773134736502 2.3322268652635003 18.139226865263502
22.8937731347365 15.5937731347365 31.892319404209502
11.6862268652635 19.9032268652635 6.591226865263501
29.744773134736498 17.8652268652635 6.2477731347365
13.5407731347365 30.9473194042095 15.8177731347365
12.8202268652635 27.0353194042095 14.220226865263498
17.336680595790497 29.7193194042095 1.644226865263498
0.39077313473650044 17.735226865263506 1.249680595790494
9.900319404209501 13.263680595790504 17.789226865263494
32.1487731347365 19.4063194042095 6.127226865263502
8.461226865263498 22.7312268652635 25.571226865263505
19.4047731347365 26.9362268652635 19.533226865263494
16.0377731347365 31.513865673682503 22.9687731347365
5.2776805957905 27.6623194042095 19.7207731347365
2.0312268652634984 13.996319404209498 11.513226865263498
26.2812268652635 2.0513194042094973 26.4293194042095
20.121226865263502 18.5822268652635 7.031680595790505
29.794226865263504 22.8322268652635 14.123226865263497
14.2287731347365 2.2246805957905025 7.751773134736501
24.411226865263494 4.556226865263504 0.5157731347365004
10.846226865263496 5.891680595790504 27.003773134736498
8.9907731347365 20.663773134736502 13.8876805957905
26.099773134736502 22.314319404209503 4.429680595790501
7.051226865263494 28.866773134736498 31.122226865263507
31.431773134736503 6.864773134736501 15.6607731347365
28.5267731347365 8.4107731347365 3.199680595790497
14.3657731347365 16.584226865263496 19.971319404209503
14.5127731347365 2.6257731347365 6.9917731347364995
28.470226865263506 28.0703194042095 24.3713194042095
4.851134326317506 16.112319404209504 18.1916805957905
11.4177731347365 12.855226865263496 22.5377731347365
29.2847731347365 26.6092268652635 24.5603194042095
8.925680595790496 18.692773134736502 5.803773134736501
1.4132268652635034 30.8323194042095 0.8272268652635049
27.562226865263504 1.5972268652635009 29.6953194042095
24.7777731347365 19.2167731347365 20.9997731347365
30.5307731347365 19.349226865263496 4.043680595790505
7.992226865263497 23.858773134736502 23.3937731347365
23.6597731347365 20.657226865263503 18.440226865263504
2.1136805957904983 13.4037731347365 7.889773134736501
31.721319404209503 1.5716805957904967 13.3467731347365
8.3277731347365 7.363226865263499 31.7657731347365
31.8537731347365 21.8777731347365 30.4283194042095
9.735773134736501 15.225226865263501 8.465226865263496
21.3677731347365 16.601226865263506 13.874319404209498
21.0303194042095 30.5833194042095 6.741680595790498
26.6182268652635 29.175226865263504 18.674319404209502
27.3203194042095 27.9163194042095 16.288226865263503
21.419226865263504 28.3022268652635 8.446226865263505
11.022226865263498 0.24422686526349935 11.599680595790502
25.2128656736825 4.337226865263496 24.5877731347365
2.267773134736501 8.3237731347365 5.8667731347364995
27.3897731347365 17.4997731347365 18.137226865263493
12.392226865263503 21.330226865263505 11.1132268652635
26.669226865263504 11.5683194042095 29.400680595790504
16.664226865263494 1.6426805957904946 28.0297731347365
13.202680595790497 14.1252268652635 12.772680595790504
14.1372268652635 3.7337731347365004 8.363773134736501
24.9743194042095 14.853226865263501 11.566226865263495
13.1467731347365 1.3527731347365002 7.295226865263501
11.9397731347365 9.988773134736501 30.1407731347365
30.1037731347365 8.6937731347365 12.4422268652635
25.2192268652635 30.155226865263494 9.447226865263495
6.7622268652635 17.0847731347365 7.644226865263498
30.660773134736502 28.1937731347365 22.2923194042095
12.2667731347365 14.798226865263501 3.5956805957904976
19.705680595790497 22.0367731347365 9.3127731347365
17.6733194042095 12.2592268652635 12.172226865263504
10.131680595790499 18.8846805957905 22.6317731347365
20.098226865263506 23.0787731347365 4.4037731347365
0.14577313473649944 29.4247731347365 13.702680595790497
31.8393194042095 1.1477731347365001 11.447226865263495
0.4082268652635008 13.0297731347365 13.240319404209497
12.7637731347365 1.2362268652634967 8.7917731347365
8.6522268652635 29.9647731347365 6.775680595790504
7.7867731347364995 17.3317731347365 10.019226865263498
26.120226865263497 9.880226865263502 30.299319404209502
21.4887731347365 16.066226865263495 18.003226865263507
14.595680595790498 11.909226865263498 18.080226865263505
7.696226865263505 3.2952268652635013 19.6153194042095
23.5167731347365 23.890226865263493 9.453226865263495
10.099226865263496 20.0377731347365 18.858773134736502
17.3017731347365 5.028319404209501 0.6847731347365009
13.1937731347365 6.7627731347365 23.2223194042095
7.235226865263499 1.353226865263501 22.2287731347365
6.527226865263501 14.5607731347365 28.279226865263503
29.544773134736502 5.165773134736501 16.78868059579051
23.0667731347365 12.929226865263495 4.626226865263497
17.5276805957905 22.956226865263496 18.907226865263503
20.8117731347365 29.721226865263496 11.947226865263495
17.7312268652635 28.471319404209503 20.093680595790502
28.9863194042095 4.691588056844495 20.235226865263506
30.8977731347365 13.2377731347365 7.433680595790506
13.5297731347365 25.274226865263493 30.427773134736498
2.392773134736501 25.0927731347365 26.0067731347365
3.322773134736501 1.599134326317511 13.160680595790495
14.166226865263503 0.1522268652635006 25.4057731347365
10.321226865263505 0.9292268652634945 0.6356805957905038
7.2177731347365 24.7012268652635 4.479680595790498
26.4667731347365 14.8357731347365 3.1382268652634977
14.935226865263495 5.4837731347365 0.6532268652634983
8.2347731347365 12.7573194042095 27.53568059579051
27.119226865263506 16.381773134736502 27.7157731347365
31.3363194042095 2.4946805957904985 19.9817731347365
22.491319404209502 1.219773134736501 29.6507731347365
0.005773134736500651 0.09022686526349588 5.250680595790499
6.688226865263495 13.092226865263498 32.0263194042095
23.360226865263506 1.0956805957904976 14.457680595790492
16.733226865263497 11.0997731347365 21.697226865263495
24.8652268652635 28.4737731347365 11.299680595790505
9.520773134736501 28.682226865263495 24.808773134736498
7.5187731347365006 22.4637731347365 5.0877731347365
5.177226865263499 27.5822268652635 29.163773134736502
25.4187731347365 25.057226865263495 14.3237731347365
15.169226865263504 30.672773134736502 14.9957731347365
2.3762268652634972 7.5107731347365 11.606319404209504
30.0437731347365 19.891226865263498 17.2132268652635
16.3022268652635 23.3353194042095 21.8487731347365
17.8453194042095 14.4512268652635 8.624226865263502
30.429226865263495 14.1667731347365 24.9117731347365
13.7917731347365 26.7583194042095 14.0067731347365
23.4833194042095 12.5417731347365 5.3356805957904925
24.0998656736825 10.193226865263505 27.0147731347365
15.483226865263497 27.9567731347365 2.465680595790502
0.8026805957905054 10.275226865263498 29.058319404209502
25.6987731347365 14.111226865263497 10.410226865263503
21.6677731347365 12.615319404209497 2.5942268652635008
15.7577731347365 31.315865673682495 25.340319404209502
3.549773134736501 27.6077731347365 2.9762268652634987
9.8487731347365 8.845226865263498 4.158226865263501
26.2867731347365 27.083226865263505 15.513226865263498
5.797226865263504 31.4097731347365 5.851226865263499
7.411226865263501 10.046680595790505 12.3046805957905
5.431773134736501 15.124680595790494 13.110773134736501
7.767226865263503 9.388226865263498 13.668226865263499
20.834680595790502 10.1496805957905 11.145773134736501
0.32877313473650105 23.426226865263494 22.7677731347365
23.8437731347365 6.370226865263497 19.4937731347365
3.5617731347365 10.9527731347365 28.430319404209502
17.0762268652635 21.828226865263495 22.6623194042095
5.799773134736501 2.0642268652634996 22.1237731347365
8.609680595790493 26.592226865263505 12.257134326317512
4.0762268652635 16.0517731347365 27.8337731347365
19.626226865263497 8.6857731347365 21.2377731347365
29.7293194042095 0.7066805957905018 18.060226865263495
4.960773134736501 25.3907731347365 29.8567731347365
26.6723194042095 27.9077731347365 13.223226865263499
16.530226865263494 18.6547731347365 20.9757731347365
8.050226865263504 1.3266805957904921 25.0582268652635
1.0596805957904962 21.9057731347365 21.6767731347365
22.026134326317504 15.793226865263499 16.6618656736825
25.3022268652635 4.3156805957904965 26.0227731347365
0.5366805957905001 4.469226865263501 25.2787731347365
1.5152268652635001 14.5337731347365 17.8127731347365
22.5807731347365 8.800680595790496 10.517226865263503
10.9332268652635 0.5666805957905012 9.205226865263505
14.0797731347365 13.964226865263498 24.824226865263505
8.4347731347365 29.0733194042095 6.217226865263498
5.242226865263497 17.224773134736502 0.4186805957905051
14.470226865263498 18.1383194042095 11.903319404209501
16.8167731347365 6.0717731347365 31.532319404209503
11.345226865263498 7.4292268652634945 17.6767731347365
29.471319404209503 11.154226865263503 25.5787731347365
22.349773134736502 28.4692268652635 6.2072268652635
23.712319404209502 20.3412268652635 3.5472268652635037
23.8267731347365 26.7957731347365 14.031226865263498
16.959680595790502 20.391226865263498 0.5202268652635027
18.1447731347365 21.2132268652635 16.917226865263494
8.590226865263496 2.485773134736501 25.744773134736498
18.884226865263493 8.900226865263498 29.050226865263504
2.4732268652634986 26.7043194042095 12.672226865263504
23.971226865263496 0.6756805957904959 18.147680595790504
15.4047731347365 27.289226865263494 19.732226865263506
15.8687731347365 23.9597731347365 14.187773134736501
28.8377731347365 14.2347731347365 28.599226865263496
14.802773134736501 26.316226865263495 29.638680595790504
1.8307731347365 25.6923194042095 27.3607731347365
27.191226865263495 10.121226865263502 1.4592268652634957
25.7877731347365 11.3737731347365 20.5432268652635
25.8947731347365 13.577226865263505 21.3087731347365
22.6447731347365 11.694680595790501 18.0157731347365
6.489226865263497 10.9357731347365 8.4687731347365
25.1347731347365 2.559226865263504 15.197680595790501
5.369226865263499 16.7447731347365 20.122226865263507
25.6613194042095 21.9332268652635 28.9827731347365
25.3357731347365 30.5353194042095 7.0027731347365005
31.916773134736502 28.907226865263503 16.4437731347365
12.653319404209501 25.7237731347365 15.1257731347365
28.5823194042095 21.3687731347365 24.5857731347365
6.1617731347364995 23.241319404209502 17.8277731347365
30.051226865263494 19.1417731347365 7.302226865263499
3.772226865263498 20.9386805957905 22.533226865263494
29.004134326317512 8.591680595790493 10.9983194042095
6.912226865263499 25.5467731347365 30.813226865263495
20.1647731347365 7.6392268652635025 20.280226865263494
24.360680595790498 16.26768059579051 26.0377731347365
6.241680595790498 7.495226865263497 21.607226865263506
4.0092268652635 1.3252268652634953 15.8277731347365
13.566588056844495 31.6537731347365 16.686319404209502
7.184226865263504 1.1927731347365 20.297773134736502
2.469773134736501 29.6617731347365 21.611226865263497
30.802773134736498 22.5822268652635 19.200319404209502
23.855226865263496 22.554226865263495 21.7312268652635
21.6862268652635 16.5486805957905 14.8997731347365
20.3767731347365 8.2652268652635 23.3117731347365
4.430226865263499 10.2667731347365 12.5197731347365
27.144226865263498 21.5657731347365 21.970226865263506
8.870773134736499 15.4942268652635 15.7587731347365
1.8622268652635015 17.354226865263506 23.8697731347365
31.5223194042095 28.006226865263493 21.001680595790504
12.548226865263501 8.438226865263495 14.843226865263496
16.388226865263498 7.4177731347365 0.7682268652635003
20.146226865263493 31.8377731347365 0.46331940420950346
14.6143194042095 3.748773134736501 5.7042268652635
15.6857731347365 32.1487731347365 4.026680595790495
14.3457731347365 31.8318656736825 23.442680595790506
13.2377731347365 4.901319404209499 19.2957731347365
3.2902268652634987 18.125319404209502 12.107226865263499
10.3967731347365 28.712319404209502 22.102773134736502
27.4127731347365 18.454680595790506 8.149773134736499
27.3927731347365 12.596226865263496 17.635226865263498
6.409773134736501 0.5696805957905013 26.6827731347365
12.528319404209501 30.4146805957905 9.3262268652635
1.9772268652634963 14.469319404209504 19.769226865263498
28.7806805957905 0.15877313473650112 24.5807731347365
23.016226865263498 13.703773134736501 32.089319404209505
3.4287731347365007 23.547773134736502 3.200773134736501
30.250226865263507 0.026773134736501447 19.6737731347365
17.5636805957905 0.2616805957904944 18.6013194042095
13.4392268652635 18.7657731347365 13.368319404209497
31.8153194042095 4.142680595790495 4.9817731347365
13.838680595790493 3.171773134736501 1.1192268652634993
2.7972268652635037 23.1952268652635 2.0702268652635
12.9087731347365 7.107319404209502 17.272226865263498
18.17613432631751 29.474680595790502 19.6183194042095
2.465680595790502 9.9107731347365 26.8507731347365
3.7702268652635027 8.850226865263501 21.9813194042095
13.299773134736501 14.876680595790504 25.429226865263495
5.9657731347365 16.758226865263502 20.5077731347365
9.775226865263498 27.8507731347365 27.4497731347365
14.4577731347365 21.361773134736502 9.0127731347365
16.560226865263495 1.8696805957904985 14.087773134736501
17.333226865263505 22.6137731347365 19.7257731347365
18.465226865263496 4.786226865263501 6.043773134736501
14.386680595790494 7.0387731347365 9.971226865263496
20.956226865263496 18.092226865263505 13.117865673682502
6.1807731347365 10.0002268652635 13.520226865263503
28.8277731347365 28.9843194042095 25.7547731347365
25.9242268652635 28.9487731347365 7.635680595790504
27.176226865263494 31.1503194042095 26.7697731347365
28.316226865263495 25.0347731347365 16.1903194042095
25.8987731347365 23.4037731347365 10.4737731347365
30.505226865263502 20.236773134736502 12.4482268652635
5.767773134736501 27.450226865263495 28.530226865263494
27.6493194042095 12.176319404209497 30.4663194042095
2.289226865263501 27.2483194042095 13.3457731347365
19.063226865263495 18.6067731347365 25.5767731347365
6.796226865263499 10.325226865263495 13.754226865263497
7.833680595790497 12.3707731347365 1.2483194042095
8.6922268652635 0.4572268652635003 10.4362268652635
31.1067731347365 4.2716805957904995 28.989773134736502
19.9933194042095 30.1307731347365 5.7887731347365
25.4357731347365 28.246226865263502 23.2017731347365
18.507680595790504 24.968319404209502 27.393226865263493
8.001773134736501 13.108680595790503 28.0297731347365
6.8057731347365 13.9657731347365 0.41022686526350327
0.39722686526349804 4.257680595790504 3.9602268652635004
5.055226865263499 30.4297731347365 6.0397731347365
30.302773134736498 4.7277731347365 22.452226865263505
18.249226865263502 16.1387731347365 9.194680595790501
15.2637731347365 21.8777731347365 8.560226865263495
30.337319404209502 6.4602268652635 15.514773134736501
1.5702268652634999 26.4752268652635 25.777226865263493
30.363773134736498 31.5103194042095 4.115680595790494
20.221319404209503 22.8913194042095 26.2192268652635
16.2317731347365 15.1132268652635 27.6067731347365
14.1282268652635 23.977773134736502 26.117226865263497
5.173226865263501 21.8977731347365 6.553680595790496
6.932226865263495 5.330226865263505 10.603226865263501
10.022319404209501 19.7677731347365 23.9187731347365
3.827226865263505 16.264226865263502 24.7767731347365
15.498773134736501 20.014226865263502 30.2437731347365
21.536226865263494 28.0607731347365 26.2827731347365
20.708226865263505 17.0942268652635 13.388680595790504
3.6652268652634987 14.1342268652635 3.4942268652634993
8.545226865263501 20.425773134736502 13.4467731347365
24.4182268652635 2.4577731347365006 14.8943194042095
26.8447731347365 1.3977731347365001 29.9373194042095
28.114773134736502 16.871226865263502 29.2173194042095
11.293773134736501 16.9272268652635 28.6173194042095
3.614680595790503 16.178226865263504 12.3962268652635
22.5313194042095 28.6337731347365 26.3287731347365
8.9847731347365 15.634680595790499 17.810226865263495
17.910773134736502 24.0683194042095 2.3012268652634944
4.943680595790497 22.172226865263504 21.6997731347365
8.787226865263499 23.532226865263503 24.340226865263496
24.1077731347365 10.8262268652635 5.206773134736501
12.2883194042095 11.7776805957905 2.6467731347365007
16.0227731347365 10.9493194042095 13.971226865263496
9.372680595790499 15.6162268652635 6.1372268652635
18.7057731347365 10.5122268652635 0.6556805957904999
27.764226865263502 30.7167731347365 31.872773134736498
26.271226865263493 25.4247731347365 28.132226865263497
3.8822268652634975 8.3537731347365 16.4297731347365
