15.3307731347365 29.812226865263504 1.4147731347364996
8.2806805957905 23.860226865263506 13.532226865263503
23.3137731347365 12.0997731347365 22.1187731347365
4.267226865263503 22.4083194042095 22.9057731347365
26.262226865263493 2.806226865263504 8.099680595790502
28.2017731347365 8.564680595790506 6.303773134736501
1.2702268652635027 6.809773134736501 14.164226865263501
10.434226865263504 24.253226865263507 20.4957731347365
11.036319404209504 9.915226865263499 24.0747731347365
26.283226865263494 27.7837731347365 13.1252268652635
15.2712268652635 16.2547731347365 28.958226865263505
23.5333194042095 28.0937731347365 1.6262268652634972
29.0113194042095 7.565226865263504 14.746226865263502
31.1317731347365 24.6677731347365 18.8637731347365
7.412865673682504 16.118865673682507 7.410226865263503
11.999226865263502 28.0672268652635 2.6096805957904934
25.327226865263505 21.7207731347365 4.921319404209502
12.069226865263495 3.8031343263175046 30.837226865263496
1.4932268652635017 2.2407731347365 26.5153194042095
13.1766805957905 5.902773134736501 19.8507731347365
16.2127731347365 24.384226865263493 3.931680595790496
29.064319404209503 6.617773134736501 14.184226865263504
23.165865673682504 18.8453194042095 1.0167731347364999
5.675226865263504 21.2087731347365 17.9997731347365
17.3717731347365 23.4117731347365 20.1107731347365
6.524773134736501 3.489226865263497 5.5122268652635
17.8417731347365 1.248773134736501 11.458226865263498
25.837319404209502 32.0043194042095 30.1797731347365
10.644680595790504 23.7813194042095 4.092226865263498
24.488773134736498 27.638226865263498 15.876226865263497
11.770680595790495 17.723226865263506 16.6847731347365
8.738680595790498 30.3847731347365 30.450226865263495
3.718226865263496 25.8082268652635 5.825226865263495
10.063226865263495 15.6457731347365 9.5777731347365
30.9667731347365 15.444226865263495 26.7097731347365
18.801226865263494 6.0072268652634975 9.9707731347365
29.2173194042095 26.988773134736498 19.8917731347365
23.357680595790498 28.1997731347365 7.273226865263503
20.1973194042095 10.090680595790502 12.1537731347365
0.4652268652634959 24.0567731347365 8.646319404209503
12.5127731347365 5.072773134736501 20.081319404209502
18.860588056844506 8.187226865263504 22.9296805957905
12.6377731347365 14.5417731347365 6.169226865263504
30.2553194042095 22.9032268652635 24.706226865263496
23.794773134736502 3.2036805957905017 2.8952268652635027
9.334680595790502 0.7442268652634993 7.030226865263501
5.508226865263502 7.910319404209499 3.2622268652635
2.6867731347365 13.968226865263496 20.8107731347365
23.5073194042095 11.5366805957905 21.0797731347365
12.1087731347365 27.3287731347365 22.133226865263502
11.813226865263495 22.268226865263493 25.476680595790498
28.9842268652635 28.546319404209502 31.2027731347365
26.9057731347365 1.9897731347365006 2.739226865263497
7.049226865263499 7.0342268652634985 26.9763194042095
13.8697731347365 25.4392268652635 11.372773134736502
6.934773134736501 19.313226865263495 28.5047731347365
18.848226865263506 2.5267731347364997 27.059226865263504
4.0877731347365 21.538773134736502 12.6517731347365
13.1647731347365 8.4327731347365 14.2562268652635
12.6197731347365 13.922226865263504 7.023319404209499
31.885226865263498 24.9793194042095 24.303773134736502
6.2407731347365 9.541226865263503 24.857226865263506
22.375226865263507 14.333226865263498 14.3412268652635
7.1957731347365 27.244773134736498 30.145226865263503
19.9477731347365 7.8482268652634986 3.258134326317503
25.099226865263496 25.3227731347365 23.438226865263495
21.3082268652635 17.1367731347365 31.6143194042095
15.174226865263499 22.9797731347365 2.1937731347364995
19.9752268652635 28.816226865263495 6.484319404209504
25.940680595790496 13.3947731347365 7.447226865263495
20.371226865263502 15.767773134736501 19.7257731347365
26.9687731347365 4.435680595790501 6.002680595790494
2.306226865263504 6.5067731347365 24.5792268652635
19.4597731347365 8.5397731347365 4.6556805957905
31.5047731347365 23.5492268652635 9.1466805957905
29.2747731347365 29.4187731347365 31.8503194042095
14.1817731347365 22.119226865263506 0.2642268652635025
6.680588056844499 7.3722268652634995 19.2782268652635
26.236773134736502 18.5687731347365 6.0897731347365
12.592226865263498 19.4743194042095 9.200226865263495
21.9357731347365 25.997773134736498 8.049773134736501
4.353226865263501 24.384226865263493 12.617226865263497
14.4077731347365 28.997226865263507 18.5687731347365
28.163226865263503 5.9632268652635005 17.414226865263494
28.571226865263505 2.8852268652634976 28.655226865263494
29.0277731347365 26.271226865263493 19.757680595790504
0.7727731347365001 5.4757731347364995 14.899134326317508
11.2772268652635 31.355773134736502 16.846680595790502
16.1742268652635 17.995680595790503 11.1337731347365
30.247319404209502 15.075773134736501 10.9392268652635
4.857773134736501 22.5877731347365 22.5193194042095
30.3303194042095 6.3407731347365 14.525226865263498
8.367226865263497 13.489226865263497 13.7537731347365
24.399226865263493 19.235319404209502 14.841773134736501
8.444226865263495 20.6032268652635 15.6802268652635
18.241319404209502 24.5867731347365 24.6913194042095
16.1586805957905 27.6277731347365 1.3862268652635024
27.8887731347365 7.5672268652635 19.871680595790508
28.330226865263505 4.901680595790495 22.270319404209502
25.432226865263495 12.435680595790501 9.3917731347365
24.796319404209502 26.055773134736498 28.196226865263505
11.165226865263499 25.794773134736502 6.526680595790495
3.877226865263502 29.334319404209502 8.712680595790502
12.368680595790494 22.0167731347365 18.9513194042095
5.340226865263496 9.261680595790494 26.5967731347365
30.9847731347365 12.6497731347365 5.4422268652635
22.7693194042095 4.2652268652635 23.4607731347365
11.757680595790504 3.7166805957904927 14.2347731347365
25.6032268652635 10.933680595790506 5.602680595790503
12.578226865263495 11.008226865263502 28.277226865263493
3.6162268652634992 0.051773134736500026 8.619680595790499
23.8437731347365 6.1247731347365 17.8377731347365
23.527226865263493 20.0977731347365 28.310226865263495
16.4602268652635 19.732226865263506 12.4237731347365
4.494226865263499 19.1152268652635 0.8966805957904995
18.9356805957905 13.233226865263497 25.7177731347365
1.2066805957905018 3.726680595790498 20.9223194042095
9.781226865263498 27.7623194042095 8.220680595790498
14.1192268652635 31.2842268652635 24.477773134736502
25.883226865263502 8.9787731347365 20.7137731347365
0.37777313473650054 0.9392268652634996 29.1987731347365
13.8322268652635 22.8907731347365 14.9767731347365
30.6657731347365 25.985226865263506 5.641680595790504
13.2517731347365 18.5347731347365 20.9722268652635
24.2863194042095 10.261319404209498 12.1147731347365
31.250226865263507 22.9917731347365 29.940773134736503
22.633226865263502 18.9907731347365 15.1222268652635
14.2427731347365 20.2987731347365 9.6252268652635
24.366226865263506 27.01468059579051 7.538680595790495
10.1217731347365 15.127319404209498 24.140226865263493
22.608226865263497 3.9767731347365007 1.5592268652635042
16.401226865263503 23.3607731347365 21.486773134736502
12.337773134736501 27.303226865263504 23.9307731347365
16.8883194042095 29.902226865263493 0.5546805957905008
26.8237731347365 8.042226865263501 20.130226865263502
31.4047731347365 15.469773134736501 9.553226865263504
16.2902268652635 10.7237731347365 22.6577731347365
15.0407731347365 17.6197731347365 29.686319404209502
29.0047731347365 29.939773134736498 15.796773134736501
11.7042268652635 14.7787731347365 23.8417731347365
11.485773134736501 19.4602268652635 30.4483194042095
13.229226865263499 25.160226865263503 29.994773134736498
2.925680595790496 30.6802268652635 7.8107731347365
12.0732268652635 20.830226865263505 9.4557731347365
20.510226865263498 19.8787731347365 8.301226865263494
21.467226865263505 17.249226865263502 11.0637731347365
6.7027731347365 14.359319404209504 16.7697731347365
20.3877731347365 4.116680595790498 22.9937731347365
5.121680595790494 13.671226865263499 6.722773134736499
22.462319404209502 9.7562268652635 31.2372268652635
20.2767731347365 20.8857731347365 8.5007731347365
13.040226865263499 5.371680595790494 25.803773134736502
27.973226865263506 16.349680595790502 15.105226865263496
10.154226865263503 14.696680595790497 9.287226865263499
20.544773134736502 22.626226865263497 11.290226865263499
28.4177731347365 11.566319404209498 30.6053194042095
8.578226865263495 10.803226865263504 31.7192268652635
3.3482268652634986 12.028226865263498 23.5907731347365
8.654226865263503 20.0543194042095 16.1712268652635
6.824226865263505 14.5537731347365 28.6403194042095
29.309226865263504 22.295226865263494 19.358226865263497
5.050226865263504 2.255226865263502 5.447773134736501
19.8397731347365 21.054226865263495 14.779319404209499
1.017773134736501 28.13068059579051 12.860773134736501
1.4462268652635046 30.1652268652635 3.2582268652635022
12.9602268652635 3.7232268652634986 10.4967731347365
20.2043194042095 5.228319404209504 29.1622268652635
1.0446805957904957 14.8187731347365 17.4567731347365
6.3947731347365 10.0212268652635 8.589226865263498
15.613773134736501 24.839226865263505 14.733226865263497
19.0017731347365 30.413773134736502 15.676226865263494
31.134226865263493 16.041226865263503 6.820319404209503
13.3977731347365 0.08277313473649883 2.4802268652634964
8.243226865263502 28.748773134736503 7.505226865263502
10.3847731347365 5.090226865263496 14.7247731347365
17.91668059579051 4.773226865263503 0.593226865263496
31.145226865263503 2.333680595790497 11.5306805957905
2.306773134736501 14.6927731347365 13.243226865263502
5.9327731347365 2.6402268652635 11.6372268652635
2.2602268652634976 14.5638656736825 2.6017731347365007
18.203226865263495 13.350226865263501 9.370226865263497
8.279680595790495 25.3327731347365 24.2587731347365
3.174226865263499 11.8643194042095 28.116773134736498
14.5357731347365 28.5822268652635 19.151226865263503
9.615226865263502 14.592226865263498 23.3593194042095
10.5582268652635 12.827226865263505 7.088773134736501
16.1897731347365 12.1402268652635 13.025226865263498
22.5907731347365 6.173226865263501 19.132226865263497
2.6366805957904944 13.362865673682506 7.7217731347365
22.1717731347365 24.500319404209502 12.206226865263496
5.430226865263499 1.9192268652635036 0.7436805957904937
10.163226865263503 19.2842268652635 26.4242268652635
6.3267731347365 26.4343194042095 16.788773134736502
32.080226865263505 6.279226865263503 4.6052268652634964
22.267226865263503 6.1767731347365 22.601226865263506
29.0087731347365 24.666226865263503 19.3873194042095
14.0152268652635 4.2697731347365 29.7273194042095
21.8537731347365 23.878319404209503 26.2807731347365
8.9082268652635 2.486680595790503 28.450226865263495
4.402773134736501 18.581319404209502 5.8112268652634995
3.381680595790499 21.3292268652635 12.654226865263503
27.2523194042095 15.610226865263499 28.495226865263497
10.1677731347365 3.069226865263495 3.860773134736501
28.186773134736498 7.212226865263496 9.846226865263496
2.614680595790503 11.854680595790498 22.8933194042095
5.413134326317504 23.7827731347365 11.149319404209503
9.508226865263502 26.0167731347365 6.694226865263495
12.7587731347365 14.252226865263502 20.2547731347365
10.4807731347365 14.054226865263495 20.211226865263505
12.407226865263503 4.930226865263499 26.016226865263498
24.377226865263502 20.2833194042095 6.526226865263503
2.344773134736501 19.507226865263497 16.7787731347365
15.2377731347365 9.7317731347365 16.572226865263495
26.138680595790504 27.1533194042095 30.649226865263493
21.1643194042095 13.4467731347365 15.728226865263501
29.2992268652635 15.955226865263505 10.691226865263495
12.3217731347365 24.069226865263495 18.1157731347365
6.58986567368251 8.245134326317512 19.868865673682507
28.974226865263496 30.2967731347365 7.7927731347365
30.6997731347365 26.180773134736498 25.236773134736502
1.2022268652635049 3.0737731347365003 21.201680595790506
16.125226865263507 21.8177731347365 26.1277731347365
24.2727731347365 7.802226865263499 26.0282268652635
3.8262268652635 18.185226865263495 0.8307731347364999
32.1242268652635 18.5037731347365 7.7926805957905
24.375773134736498 11.340226865263496 12.221226865263496
12.5637731347365 0.26668059579050407 29.2623194042095
26.6647731347365 21.6007731347365 21.736226865263497
8.360226865263499 31.6273194042095 26.919226865263504
20.5057731347365 0.330226865263505 19.266226865263498
3.066226865263495 7.278226865263498 0.28522686526350327
25.7267731347365 19.8393194042095 6.0557731347365
9.7777731347365 22.6557731347365 12.8472268652635
4.212680595790502 5.275680595790504 15.418226865263499
0.546226865263499 2.671226865263499 3.9262268652634944
22.0492268652635 24.5377731347365 11.363680595790498
25.0067731347365 14.377226865263502 28.4476805957905
25.432226865263495 17.8827731347365 28.547226865263504
3.2812268652634984 19.1327731347365 27.7167731347365
24.7312268652635 13.7717731347365 0.09222686526349833
20.755226865263502 22.992226865263497 9.6617731347365
8.455226865263505 8.255226865263502 21.1867731347365
13.456226865263496 28.3047731347365 23.755226865263502
14.5897731347365 20.0847731347365 11.556773134736499
19.872226865263507 2.621680595790494 28.025226865263498
8.4967731347365 8.498226865263497 6.1862268652634995
19.249865673682507 1.7123194042094987 26.9387731347365
24.9247731347365 28.174319404209502 18.131226865263493
23.860226865263506 12.514226865263502 3.703773134736501
19.9207731347365 9.863773134736501 28.6273194042095
5.565226865263504 9.430773134736501 11.9266805957905
13.895226865263503 27.479226865263506 16.8213194042095
1.3592268652635013 14.470226865263498 12.6132268652635
6.3622268652635015 24.2953194042095 9.230226865263496
19.5987731347365 20.4983194042095 23.531865673682503
9.8587731347365 11.8322268652635 6.2447731347365
15.746865673682507 0.12377313473650098 21.393865673682498
9.595226865263498 6.609226865263501 14.831226865263496
23.291773134736502 23.8097731347365 24.5757731347365
1.3182268652635045 9.302773134736501 19.0762268652635
19.7902268652635 21.821865673682495 20.544865673682494
6.8847731347365 9.035226865263503 19.926226865263494
9.5397731347365 0.5056805957904942 18.5807731347365
28.0603194042095 5.9647731347365 18.6257731347365
29.892319404209502 12.3017731347365 11.5307731347365
23.741226865263506 24.7663194042095 30.0747731347365
1.9668656736825056 13.854226865263499 21.497319404209502
23.274226865263493 11.465773134736502 3.7136805957904926
0.748773134736501 16.3287731347365 17.2747731347365
26.1617731347365 26.0967731347365 24.2432268652635
17.4897731347365 5.251773134736501 1.7547731347364994
11.115226865263502 5.0837731347365 12.697226865263495
23.5367731347365 26.995226865263497 1.860226865263499
9.072226865263495 5.8917731347365 27.1826805957905
19.9437731347365 18.881226865263493 23.9572268652635
27.0297731347365 8.869773134736501 1.269226865263498
14.5657731347365 8.269226865263498 5.732773134736501
8.199226865263505 24.2117731347365 15.766680595790504
27.782226865263503 24.2193194042095 28.126773134736503
25.589226865263505 3.7302268652634964 28.436773134736498
10.133226865263502 9.730226865263496 23.414226865263494
27.8207731347365 5.106226865263501 31.1737731347365
11.955226865263505 22.9123194042095 17.7187731347365
10.4647731347365 15.6957731347365 28.555773134736498
11.1147731347365 15.278226865263498 30.6007731347365
19.741226865263506 13.9057731347365 4.991226865263499
27.919865673682494 6.8187731347364995 21.8357731347365
6.5032268652635 22.7587731347365 8.3046805957905
4.2646805957904945 1.0586805957905057 19.2132268652635
2.824680595790497 3.4912268652634992 19.8682268652635
16.405226865263494 14.901680595790495 16.4347731347365
11.257226865263497 15.049226865263499 12.577226865263505
18.6922268652635 2.613226865263499 0.6072268652634989
23.193226865263505 1.4052268652635007 7.482773134736501
28.1943194042095 7.359226865263501 26.997773134736498
7.863226865263499 3.4307731347364996 28.8473194042095
23.196134326317505 22.589226865263505 28.410226865263503
17.9512268652635 4.8892268652635025 18.1953194042095
29.4658656736825 29.1473194042095 9.3412268652635
13.742226865263497 17.9482268652635 20.7807731347365
24.759226865263493 28.2263194042095 27.6357731347365
16.4787731347365 9.180680595790506 32.092226865263505
15.5237731347365 17.2252268652635 21.274226865263493
29.2956805957905 14.9687731347365 24.3703194042095
12.072226865263495 28.5497731347365 22.564773134736498
16.9947731347365 14.2217731347365 1.7246805957905025
7.996226865263502 6.7407731347365 20.1737731347365
0.9942268652634993 6.822226865263495 19.7597731347365
23.8637731347365 7.674680595790505 4.913226865263503
25.6802268652635 7.5647731347365 15.8947731347365
4.498226865263497 23.0057731347365 12.895773134736501
22.340319404209502 16.4933194042095 0.43613432631751436
30.8652268652635 26.7273194042095 30.913226865263503
28.744773134736498 17.4577731347365 10.950773134736501
31.062588056844504 3.4343194042095 18.641226865263498
21.666773134736502 15.032226865263503 5.868226865263502
12.8812268652635 8.615226865263502 9.970226865263498
26.1933194042095 25.3277731347365 11.993226865263502
19.9627731347365 21.4037731347365 24.2053194042095
11.507680595790504 26.1682268652635 2.8442268652635008
1.860226865263499 5.327226865263505 9.145773134736501
26.7997731347365 27.3537731347365 11.5627731347365
23.4297731347365 32.1168656736825 7.276226865263503
30.369226865263506 6.716319404209504 16.1407731347365
16.2893194042095 24.979226865263506 4.334226865263496
8.0777731347365 13.447226865263495 15.1707731347365
9.008226865263502 28.5367731347365 9.4882268652635
26.741773134736498 2.7062268652634955 14.7227731347365
5.254773134736499 22.8847731347365 7.043773134736501
3.2397731347365006 19.4577731347365 28.7127731347365
31.953226865263495 31.901319404209502 31.808865673682504
24.7782268652635 9.3537731347365 27.1982268652635
10.077226865263505 15.3117731347365 10.5667731347365
2.6056805957905027 0.6667731347365002 8.4757731347365
18.4383194042095 19.569226865263495 18.9987731347365
4.195680595790506 30.369226865263506 30.0087731347365
7.361226865263497 13.591680595790493 30.1337731347365
10.2377731347365 4.6727731347365005 23.1937731347365
1.9216805957905052 26.6143194042095 13.488773134736501
8.8917731347365 28.9787731347365 8.496226865263502
11.108680595790503 15.495226865263497 9.9163194042095
4.138226865263498 18.9122268652635 29.056226865263504
28.1676805957905 5.9297731347365 31.7583194042095
8.001773134736501 14.854226865263499 32.141773134736496
7.183680595790506 1.3312268652634955 28.6717731347365
17.4963194042095 0.8386805957904926 11.785226865263503
20.679226865263495 23.9242268652635 4.223865673682511
24.9362268652635 31.148226865263503 5.633226865263502
17.063226865263495 3.4847731347365 31.2633194042095
8.450226865263495 26.7883194042095 14.044226865263504
27.718226865263496 11.369773134736501 30.8082268652635
8.9007731347365 9.792319404209504 20.4373194042095
27.9473194042095 15.2737731347365 29.497773134736498
23.250226865263507 10.7502268652635 4.031680595790505
21.3067731347365 22.970226865263506 10.524773134736499
9.264226865263502 22.003319404209503 24.6463194042095
3.7436805957904937 21.622319404209502 12.273226865263503
11.749226865263502 4.724226865263496 11.8902268652635
26.102226865263496 15.6937731347365 29.429226865263495
6.755226865263502 26.495773134736503 17.750226865263507
19.416773134736502 30.0987731347365 3.0442268652635036
14.968226865263496 26.8107731347365 11.3737731347365
24.0567731347365 1.668773134736501 24.2587731347365
1.2672268652635026 27.6627731347365 3.7232268652634986
25.2523194042095 7.3156805957904965 9.9427731347365
7.8757731347365 22.232226865263506 2.8112268652634995
21.4917731347365 8.4897731347365 31.0912268652635
31.578226865263495 3.709680595790502 20.682226865263495
11.3417731347365 10.794226865263504 26.148226865263503
12.9467731347365 26.2617731347365 28.589680595790497
6.347680595790493 2.6257731347365 4.777226865263501
4.619226865263499 18.0597731347365 0.9162268652635035
30.1317731347365 29.5957731347365 25.931773134736503
18.3967731347365 8.526773134736501 2.3726805957904986
2.5207731347364994 13.060226865263495 22.533226865263494
9.828680595790502 26.324226865263505 7.045226865263501
15.5567731347365 16.535773134736502 29.4803194042095
8.6952268652635 14.969680595790493 3.3652268652635016
21.2627731347365 8.3172268652635 30.3047731347365
22.2847731347365 23.7327731347365 10.043680595790505
11.8352268652635 5.719773134736501 30.5673194042095
4.844773134736501 1.3122268652635043 21.0047731347365
12.117226865263497 3.9062268652634984 25.459226865263496
4.0647731347365 19.619226865263506 27.7217731347365
12.276319404209499 19.9867731347365 9.585319404209503
21.0117731347365 16.700226865263495 30.378319404209503
32.0387731347365 28.6363194042095 3.6837731347364997
5.325226865263495 11.726226865263499 3.745226865263497
15.6657731347365 22.6357731347365 21.7137731347365
7.5882268652635005 28.7147731347365 29.8592268652635
22.8507731347365 14.048226865263501 15.1757731347365
14.3867731347365 8.8557731347365 15.2573194042095
24.3747731347365 17.3587731347365 5.5077731347364995
8.608226865263497 8.590226865263496 15.0852268652635
21.9416805957905 1.4850417873715003 7.163319404209499
11.587680595790502 13.9177731347365 8.253680595790499
23.5297731347365 24.6067731347365 24.004226865263497
30.535773134736502 9.6057731347365 25.1577731347365
8.963680595790493 31.558773134736498 13.685226865263495
28.861773134736502 15.455226865263505 28.8623194042095
26.465319404209502 8.216680595790493 27.3427731347365
2.0512268652634944 18.1933194042095 16.6143194042095
31.5857731347365 1.0146805957904945 30.8437731347365
1.0586805957905057 30.797773134736502 16.7797731347365
3.4327731347365003 24.1723194042095 23.872226865263507
5.498226865263497 6.627226865263502 1.1226805957904986
26.6563194042095 18.5247731347365 10.773773134736501
29.2547731347365 29.558319404209502 20.7697731347365
6.328773134736501 6.1767731347365 3.802226865263499
5.7232268652634986 25.6802268652635 30.6107731347365
13.2787731347365 30.9587731347365 26.0607731347365
22.2933194042095 1.9687731347364998 14.797680595790496
10.963773134736499 8.4747731347365 0.5302268652635007
12.141226865263498 24.608226865263497 9.8797731347365
31.7757731347365 0.1266805957905035 1.8497731347365
22.114226865263497 11.30113432631751 22.066226865263495
0.9162268652635035 18.768226865263493 21.8337731347365
5.0927731347365 7.7746805957905 4.491226865263499
29.2177731347365 7.1282268652635 16.2757731347365
7.828773134736501 31.9122268652635 1.4162268652635035
25.242773134736503 20.5917731347365 19.7447731347365
26.6437731347365 25.9603194042095 29.264226865263502
2.6757731347365006 18.137226865263493 13.218226865263496
1.617226865263497 10.0607731347365 29.882226865263497
9.204680595790492 27.816226865263495 15.977226865263496
26.8883194042095 3.4122268652634986 8.687680595790496
4.2246805957905025 14.0947731347365 27.3917731347365
4.383773134736501 16.7357731347365 12.818226865263505
19.8223194042095 14.044226865263504 24.8307731347365
19.6167731347365 17.4452268652635 28.7097731347365
10.635680595790504 28.117773134736503 14.087319404209499
30.5347731347365 12.895226865263503 10.587773134736501
0.6236805957905034 28.176226865263494 5.852226865263496
17.605773134736502 0.9292268652634945 15.6263194042095
1.9192268652635036 13.296773134736501 32.062226865263504
6.7447731347365 24.1763194042095 30.1507731347365
14.6057731347365 0.41022686526350327 2.7742268652635005
28.056773134736503 25.9857731347365 13.5937731347365
25.2767731347365 11.8797731347365 16.449226865263505
12.9497731347365 30.436773134736498 14.4662268652635
17.883226865263502 12.691226865263495 17.634226865263493
3.163588056844503 0.8771343263175027 8.726226865263499
26.626773134736503 16.0342268652635 6.341226865263501
13.2382268652635 4.3717731347365 16.8652268652635
5.7532268652635 10.446226865263505 24.828226865263495
20.358226865263497 22.4597731347365 30.4953194042095
11.9617731347365 11.200226865263495 26.7593194042095
1.4037731347365003 6.8557731347365 14.635226865263498
1.390319404209503 22.3052268652635 3.4222268652635037
22.620226865263497 5.234319404209504 12.328680595790502
4.7776805957905 6.1927731347365 4.330226865263505
5.252226865263502 26.950319404209502 28.065773134736503
6.925226865263504 24.6937731347365 25.2647731347365
24.731680595790507 7.333680595790497 26.1887731347365
22.7313194042095 27.4383194042095 26.686773134736498
22.5672268652635 0.8976805957905043 22.6507731347365
30.811773134736498 24.267226865263503 25.432226865263495
18.867226865263497 3.232680595790498 27.562773134736503
1.6902268652635044 18.900226865263498 23.628226865263507
7.5212268652635 13.098226865263499 31.3172268652635
3.700773134736501 29.5377731347365 28.5297731347365
6.0067731347365 18.336226865263505 6.477226865263496
19.90168059579051 11.434680595790496 27.742226865263497
30.0093194042095 24.4553194042095 23.8453194042095
1.958226865263498 31.007865673682502 18.4787731347365
7.4977731347365 24.4253194042095 25.0667731347365
0.8936805957904994 12.0087731347365 12.351680595790498
23.0372268652635 20.7647731347365 28.917226865263494
5.6196805957904985 24.845226865263506 0.38868059579050396
5.6662268652635035 7.170226865263501 10.8687731347365
27.013226865263498 23.5627731347365 14.2157731347365
29.1097731347365 19.7267731347365 25.3682268652635
29.1742268652635 4.8213194042095004 10.459773134736501
10.305680595790506 15.833680595790497 28.730226865263496
0.9917731347364995 2.930134326317514 27.596319404209503
15.659226865263498 19.242226865263497 26.224226865263496
16.398226865263503 24.855773134736502 15.6377731347365
29.315226865263504 7.760226865263498 26.0967731347365
11.541226865263503 25.392319404209502 9.3936805957905
1.8256805957905016 16.8673194042095 17.5137731347365
20.5137731347365 28.5487731347365 5.8027731347364995
23.4302268652635 14.665226865263499 14.4907731347365
27.4513194042095 7.111680595790503 15.782226865263503
28.911226865263494 7.727226865263496 8.933773134736501
27.7757731347365 6.608226865263497 10.123226865263497
19.047773134736502 4.822773134736501 27.1317731347365
7.702680595790497 3.8777731347365005 21.7583194042095
11.460680595790492 4.596319404209499 31.177773134736498
2.1802268652634993 26.2253194042095 31.3477731347365
0.9792268652634988 30.105226865263496 19.6067731347365
17.178680595790496 15.5617731347365 22.261226865263502
3.644680595790504 30.8533194042095 7.0702268652635
28.5713194042095 7.4602268652635 5.964226865263498
1.5482268652635014 30.7817731347365 18.711680595790497
5.733226865263497 5.932226865263495 4.6197731347365
28.121226865263502 3.1447731347365 2.2023194042095007
9.858226865263497 7.769226865263498 1.647226865263498
23.2467731347365 7.520773134736499 17.708226865263505
21.653680595790505 24.6007731347365 3.5347731347365006
8.121680595790494 7.940226865263504 27.2723194042095
11.039134326317509 0.5187731347365006 18.8857731347365
9.014226865263502 17.116226865263506 11.0672268652635
2.9837731347365004 26.7867731347365 15.251773134736501
3.702226865263505 30.1063194042095 7.2072268652635
10.359680595790493 5.6122268652635015 14.1477731347365
6.285680595790495 7.347226865263501 27.814773134736498
2.627226865263502 30.171319404209502 28.251773134736503
23.382226865263497 19.7067731347365 13.4067731347365
14.565226865263504 12.337773134736501 13.138226865263498
6.5227731347365 7.548226865263501 10.6557731347365
27.4827731347365 8.2277731347365 9.0417731347365
24.6577731347365 28.2273194042095 13.556226865263504
24.6143194042095 0.3636805957904983 25.1652268652635
12.050226865263504 14.782226865263503 7.344226865263501
31.848226865263506 6.224226865263496 26.468319404209502
13.392226865263503 11.401226865263503 0.9196805957904957
19.0462268652635 0.6233194042095 32.13122686526349
20.6527731347365 31.128773134736498 4.8312268652634955
19.3167731347365 14.3477731347365 5.794226865263504
14.8537731347365 22.3807731347365 1.049226865263499
27.0297731347365 20.2812268652635 24.742773134736503
13.8082268652635 14.480226865263496 25.9997731347365
21.2317731347365 15.733680595790503 11.419226865263504
6.680226865263499 17.4327731347365 21.274226865263493
27.8747731347365 21.1507731347365 15.548226865263501
23.288773134736502 15.0002268652635 19.1767731347365
29.0973194042095 20.4607731347365 15.2787731347365
31.125773134736498 23.2372268652635 8.737226865263501
22.794773134736502 6.351226865263499 18.3172268652635
30.372226865263507 24.6263194042095 24.922773134736502
14.4052268652635 20.6652268652635 31.479226865263506
10.4717731347365 17.5853194042095 16.4902268652635
14.679226865263495 9.178226865263504 31.5377731347365
30.2687731347365 14.508226865263502 11.936773134736502
5.609226865263501 23.2777731347365 12.0822268652635
23.7293194042095 13.4912268652635 28.0837731347365
0.2142268652634982 18.3807731347365 22.372319404209502
31.5303194042095 22.6603194042095 30.9723194042095
1.7842268652634985 5.028226865263498 26.177773134736498
27.3383194042095 8.636865673682507 2.4136805957904954
3.3887731347364998 30.0027731347365 23.8127731347365
2.0217731347365007 6.183319404209502 31.2027731347365
20.305319404209502 22.4447731347365 19.3183194042095
13.1217731347365 18.739680595790503 2.9762268652634987
16.724773134736502 17.057226865263495 23.7197731347365
7.231134326317516 30.9953194042095 14.684773134736501
26.314773134736498 19.5767731347365 0.8526805957905026
20.428773134736502 16.9407731347365 11.286226865263501
30.9212268652635 1.8766805957905035 5.5327731347365
29.026319404209502 17.7372268652635 1.8652268652635016
0.6442268652634979 5.408226865263501 0.6996805957904968
1.6356805957905038 1.8142268652634996 28.8957731347365
22.712226865263496 5.0996805957905025 11.0367731347365
4.2622268652635 23.9057731347365 4.298226865263501
23.717226865263505 22.7297731347365 26.2603194042095
19.6703194042095 2.9572268652635003 18.410773134736502
2.914226865263501 10.9397731347365 15.786226865263501
24.238773134736498 12.616773134736501 1.4342268652635042
4.857773134736501 30.491773134736498 23.369226865263506
7.575226865263495 3.022226865263498 10.6027731347365
2.5557731347364996 30.0277731347365 17.4183194042095
17.3797731347365 1.8392268652634982 30.7992268652635
9.451680595790492 11.9607731347365 15.435226865263495
13.1552268652635 31.495226865263497 29.238226865263506
25.5077731347365 13.8752268652635 0.546226865263499
24.4092268652635 13.4557731347365 4.143680595790499
24.5887731347365 1.2572268652634975 26.1127731347365
8.910680595790495 18.7957731347365 19.708680595790497
5.986226865263497 27.390226865263493 18.5672268652635
0.17922686526349452 7.351226865263499 19.4207731347365
19.153680595790505 26.9017731347365 15.706226865263496
11.511226865263502 16.1057731347365 16.389319404209502
15.8377731347365 17.4163194042095 9.477226865263496
24.1157731347365 13.8777731347365 23.6802268652635
15.469773134736501 25.150226865263498 6.991226865263499
0.5722268652634952 24.139226865263502 18.3412268652635
26.279319404209502 14.283319404209504 22.547226865263504
14.0032268652635 27.726226865263506 24.903680595790505
1.5672268652634997 17.626226865263497 17.6387731347365
14.351680595790498 24.379226865263497 30.650226865263498
15.371680595790494 14.993226865263502 6.353226865263501
27.3883194042095 15.360226865263499 29.7797731347365
22.4667731347365 15.4707731347365 11.0522268652635
11.1467731347365 15.7407731347365 28.9233194042095
10.4942268652635 20.842680595790497 25.182226865263495
11.596226865263496 4.8567731347365 20.3077731347365
11.982226865263499 25.937773134736503 20.233773134736502
26.0723194042095 2.0112268652635024 19.355226865263496
31.4687731347365 27.071680595790497 25.5497731347365
4.906226865263498 25.392226865263503 4.970226865263498
12.8812268652635 0.4132268652635034 28.4893194042095
21.649226865263493 15.7757731347365 11.0517731347365
1.7217731347365 1.1437731347365006 9.537319404209502
13.939680595790506 30.504226865263497 10.5002268652635
0.3076805957905009 5.3182268652635045 5.3247731347365
15.111226865263497 6.5556805957905055 3.589226865263498
1.8526805957905026 24.687226865263504 8.617226865263497
29.445865673682505 20.556226865263504 25.9697731347365
10.616680595790498 18.961226865263505 24.3447731347365
30.4283194042095 9.584773134736501 12.927773134736501
24.938226865263495 18.760226865263498 27.5093194042095
8.736226865263497 26.074680595790497 25.4427731347365
25.619319404209502 3.607773134736501 13.3322268652635
18.086226865263505 19.2717731347365 5.635226865263498
13.953680595790502 8.484226865263501 7.306773134736501
13.9227731347365 25.8777731347365 27.4027731347365
29.163773134736502 29.818226865263505 26.9827731347365
24.4812268652635 20.2363194042095 19.203226865263495
0.09377313473649984 12.1197731347365 12.4207731347365
25.5687731347365 13.681226865263504 27.7347731347365
19.563226865263495 30.1157731347365 11.0457731347365
19.3493194042095 31.0513194042095 10.804226865263495
17.985226865263506 28.238226865263506 29.910773134736502
1.424226865263499 10.7227731347365 2.617226865263497
0.6952268652634999 28.2103194042095 7.647680595790504
6.946226865263505 1.0247731347365008 15.0732268652635
5.190773134736501 18.599226865263496 12.3977731347365
21.4357731347365 13.4707731347365 24.221226865263496
23.5657731347365 6.6342268652635 5.6287731347365
31.7117731347365 27.681773134736503 32.1457731347365
10.998226865263497 4.830226865263505 32.0052268652635
6.4117731347364995 32.1423194042095 2.3292268652635
6.517680595790495 23.3063194042095 11.392226865263503
18.0967731347365 7.051226865263494 19.230773134736502
5.354226865263499 20.235226865263506 16.536226865263494
28.5067731347365 21.092680595790497 4.213773134736501
23.8707731347365 21.9536805957905 28.9602268652635
16.1547731347365 27.7902268652635 7.0557731347365
20.1767731347365 17.15168059579051 28.926226865263494
21.5432268652635 5.038226865263503 30.5642268652635
20.2687731347365 24.2693194042095 3.996680595790494
26.4782268652635 30.093226865263496 28.0713194042095
16.818226865263505 20.1957731347365 25.982319404209502
5.7532268652635 9.279773134736502 5.209680595790502
28.2117731347365 10.0107731347365 30.7637731347365
5.1197731347365 0.7122268652634958 0.44122686526349497
15.275226865263498 19.010226865263498 21.735226865263506
15.852226865263496 17.5867731347365 19.5147731347365
22.3607731347365 22.7162268652635 24.8947731347365
22.652226865263493 23.7373194042095 18.260226865263498
31.8163194042095 6.9397731347365 26.305773134736498
12.6207731347365 25.932226865263495 24.753226865263507
8.017773134736501 12.0377731347365 30.0197731347365
24.7333194042095 25.705226865263505 2.697226865263495
29.675773134736502 31.2192268652635 15.3867731347365
21.8687731347365 23.029865673682508 19.2173194042095
19.8813194042095 27.120226865263497 20.6217731347365
31.3047731347365 24.125773134736498 24.3517731347365
4.5647731347365 11.220680595790498 23.9847731347365
19.8957731347365 17.774226865263493 11.048226865263501
5.348773134736501 10.1522268652635 10.645773134736501
17.2147731347365 17.919773134736502 13.583226865263498
10.827226865263505 23.2497731347365 24.3387731347365
27.3262268652635 7.9457731347365 27.660773134736502
8.149773134736499 7.290680595790505 19.1227731347365
16.366226865263506 26.581226865263496 7.596680595790502
10.459226865263496 23.229226865263506 4.229226865263499
21.4812268652635 10.782226865263503 9.0677731347365
8.084226865263496 4.844773134736501 23.604226865263506
26.008226865263502 23.5732268652635 0.7736805957904949
21.494226865263506 6.5732268652635 24.8337731347365
4.820680595790506 20.824226865263505 32.131773134736505
11.927773134736501 4.724226865263496 10.648226865263503
25.642226865263503 11.445680595790506 17.5912268652635
27.8163194042095 30.4787731347365 5.343226865263496
15.691226865263495 25.2227731347365 3.9717731347365
2.1082268652634966 5.156226865263498 20.373680595790503
9.697680595790501 27.0053194042095 15.924773134736501
22.303773134736502 2.563680595790501 13.8202268652635
31.8847731347365 13.985773134736501 25.7797731347365
22.4233194042095 16.3287731347365 19.032319404209503
13.9227731347365 2.2512268652634972 14.5857731347365
16.9237731347365 10.305773134736501 23.3717731347365
28.2117731347365 10.757226865263497 2.370226865263497
1.482226865263499 0.08722686526349577 30.814319404209503
2.3182268652635045 27.137226865263493 15.662226865263499
11.3197731347365 4.492226865263497 8.898680595790495
18.9627731347365 5.788226865263503 16.7992268652635
14.688226865263495 8.322226865263495 32.0667731347365
8.8752268652635 12.029226865263503 31.3322268652635
11.0947731347365 9.784226865263498 12.892773134736501
18.2753194042095 2.4806805957905027 25.785773134736502
13.4302268652635 28.8317731347365 17.6263194042095
0.9702268652634984 19.3067731347365 23.2877731347365
19.8097731347365 12.481226865263501 9.5327731347365
11.031226865263498 14.9882268652635 7.7277731347365
11.2412268652635 9.7802268652635 28.1763194042095
22.6327731347365 1.4322268652634946 6.7682268652635
14.5337731347365 15.4137731347365 27.4037731347365
26.6923194042095 2.806226865263504 29.428773134736502
10.921226865263499 8.236226865263497 12.5057731347365
7.769226865263498 3.1066805957904933 5.8047731347365
7.993226865263502 26.199226865263505 16.4182268652635
8.8307731347365 13.8722268652635 14.175226865263504
20.8207731347365 23.288773134736502 25.1092268652635
28.3173194042095 4.091773134736501 24.547226865263504
10.028226865263498 29.753773134736498 30.384226865263493
5.2917731347365 2.3137731347365005 20.4527731347365
29.5787731347365 7.364680595790503 5.3507731347364995
15.982226865263506 23.631226865263493 21.236226865263497
1.8526805957905026 24.005226865263502 18.366226865263506
20.0153194042095 21.0187731347365 31.267865673682508
20.53268059579051 27.4217731347365 13.3067731347365
12.354226865263499 5.262680595790499 30.535773134736502
12.712226865263496 25.1917731347365 11.558319404209502
9.024773134736499 10.5182268652635 15.142226865263503
18.1407731347365 30.640226865263493 11.459773134736501
6.1372268652635 11.254226865263497 3.4802268652634964
27.2513194042095 0.4396805957905059 24.875773134736498
28.995226865263497 1.873773134736501 24.0877731347365
22.879226865263497 5.635680595790504 18.6517731347365
8.3337731347365 3.127226865263502 29.5432268652635
20.5397731347365 30.366773134736498 4.6617731347364995
7.0067731347365 14.072319404209498 31.7147731347365
6.537226865263499 6.8172268652635 5.0982268652634986
10.3267731347365 19.8047731347365 8.392680595790495
21.029226865263503 16.2607731347365 19.1646805957905
0.9462268652635046 31.8273194042095 15.092226865263498
30.1997731347365 7.1487731347365 15.950773134736501
23.807226865263495 12.8647731347365 3.0146805957904945
22.5527731347365 31.4797731347365 11.1047731347365
1.4182268652634988 24.314319404209503 9.1342268652635
30.694226865263495 23.544773134736502 30.651319404209502
25.1537731347365 8.749226865263502 27.316226865263495
14.6257731347365 19.4093194042095 23.408226865263494
4.482773134736501 5.709226865263496 1.0276805957904998
19.381226865263493 7.160680595790495 9.649773134736499
12.389773134736501 19.7167731347365 14.692680595790506
17.4937731347365 28.128226865263507 24.244226865263506
25.4097731347365 25.5807731347365 31.1937731347365
7.584680595790502 1.232226865263499 12.920226865263501
10.087226865263496 6.9572268652635 6.461226865263498
29.440773134736503 12.1552268652635 31.9577731347365
28.873773134736503 1.3697731347364996 1.3267731347365004
25.870226865263497 16.1007731347365 19.2037731347365
11.167226865263501 5.2302268652634964 0.8662268652634992
7.6736805957905005 9.940680595790496 31.047773134736502
16.953226865263495 10.9347731347365 12.446680595790497
5.0367731347364995 19.4977731347365 16.163773134736502
17.6817731347365 3.168226865263499 10.719680595790493
7.0412268652635035 26.0253194042095 16.134773134736502
29.176226865263494 9.320319404209503 3.444226865263495
25.027226865263493 19.63968059579051 5.244319404209502
7.519226865263498 3.840226865263496 23.1737731347365
28.7227731347365 6.4562268652634955 9.4837731347365
12.7652268652635 19.861226865263497 16.154226865263503
7.011680595790494 2.572773134736501 10.8382268652635
0.8147731347364999 20.203319404209502 3.5837731347365
12.9957731347365 28.8867731347365 23.5127731347365
30.677773134736498 26.4143194042095 30.7127731347365
18.3037731347365 11.5537731347365 28.1977731347365
3.8356805957904925 3.253680595790499 25.093319404209502
0.514773134736501 11.4897731347365 9.491773134736501
16.8027731347365 3.7193194042095037 23.2467731347365
9.7777731347365 14.3842268652635 20.316226865263495
21.7933194042095 11.171226865263499 0.27922686526350304
22.7347731347365 23.9057731347365 2.7577731347364995
8.206773134736501 20.105226865263496 3.502226865263502
14.916226865263503 17.006226865263493 9.541226865263503
3.642773134736501 30.878773134736498 17.756773134736502
3.049226865263499 10.364226865263497 3.5672268652634997
4.0877731347365 18.518226865263493 28.7132268652635
4.533319404209504 24.987680595790508 0.41122686526350094
24.54168059579051 7.7057731347365 0.2467731347365003
6.496226865263502 10.4923194042095 30.9117731347365
16.0317731347365 28.8383194042095 1.3006805957904959
11.1967731347365 21.4097731347365 10.429226865263495
14.676226865263494 8.599226865263496 24.751773134736503
14.7827731347365 0.5537731347365007 21.7102268652635
30.4212268652635 6.4162268652635035 13.7072268652635
32.1437731347365 25.470226865263506 30.3857731347365
21.0427731347365 2.9932268652635017 9.3977731347365
12.862319404209504 20.593680595790502 17.0367731347365
29.4463194042095 6.932226865263495 13.852226865263496
9.2657731347365 31.4057731347365 21.5283194042095
30.497773134736498 28.462319404209502 0.04531940420950065
25.750226865263507 12.047680595790496 7.026226865263503
22.9767731347365 8.423226865263501 26.556773134736503
14.7132268652635 15.6233194042095 15.395773134736501
29.3903194042095 6.488773134736499 14.424226865263499
5.363773134736499 5.085773134736501 11.8507731347365
19.279226865263503 10.3077731347365 28.5313194042095
20.816226865263495 11.059226865263504 22.053773134736502
14.529226865263503 30.5987731347365 8.752319404209498
1.1462268652635004 16.331226865263496 16.641680595790504
8.695680595790506 24.5333194042095 31.064773134736498
5.748226865263497 2.928226865263504 11.2247731347365
1.060680595790501 11.278226865263498 27.794773134736502
3.6192268652634993 18.834226865263496 17.2222268652635
26.9447731347365 31.343319404209502 6.486680595790503
10.3427731347365 15.1167731347365 24.6737731347365
14.2797731347365 7.549226865263499 6.780773134736501
16.462226865263496 8.2397731347365 26.131226865263493
26.6347731347365 21.628226865263507 10.020773134736501
3.0762268652635 12.663226865263503 28.872773134736498
1.3762268652634972 2.5027731347365005 11.1067731347365
22.2102268652635 4.6377731347365 3.1282268652634997
19.015226865263493 13.0767731347365 5.3987731347365
2.090226865263496 3.6422268652635026 20.521226865263493
30.7827731347365 26.768226865263493 14.656226865263498
21.642319404209502 6.123226865263497 23.2837731347365
26.4727731347365 21.6777731347365 10.6927731347365
6.904680595790495 4.123226865263497 5.052226865263499
1.8626805957904935 5.4357731347365 20.0343194042095
31.6467731347365 3.165773134736501 22.3292268652635
8.607226865263499 11.9357731347365 13.1977731347365
22.110226865263506 32.1633194042095 22.9707731347365
15.6772268652635 31.613226865263506 1.5276805957904998
3.0966805957905024 11.643319404209503 22.8412268652635
15.174226865263499 18.569226865263495 11.046773134736501
23.562226865263504 12.502226865263502 27.4113194042095
9.619680595790499 1.1857731347365004 20.024226865263493
20.6982268652635 10.526226865263503 29.459226865263496
10.9266805957905 18.3293194042095 25.658226865263494
23.921319404209502 31.9057731347365 31.8223194042095
29.6427731347365 15.2633194042095 29.654319404209502
3.783773134736501 2.123226865263497 20.3347731347365
1.6287731347365 22.1907731347365 18.6997731347365
27.446226865263505 22.0147731347365 14.5267731347365
14.3322268652635 24.491773134736498 13.8022268652635
4.654226865263503 17.016226865263498 21.310226865263495
15.7907731347365 8.671680595790505 30.683319404209502
22.809226865263504 12.4647731347365 22.7333194042095
10.651226865263503 0.43277313473650025 18.5732268652635
11.724226865263496 4.892680595790495 31.9087731347365
16.6772268652635 14.785226865263503 1.194226865263495
1.8617731347365005 30.1153194042095 19.442773134736502
5.2572268652634975 30.4967731347365 23.9116805957905
2.2376805957904935 10.8567731347365 1.700773134736501
31.246226865263502 11.898226865263503 12.937226865263504
23.813226865263495 24.377226865263502 24.5187731347365
15.902773134736501 2.1883194042094978 23.1177731347365
29.9697731347365 15.6657731347365 28.7737731347365
21.3927731347365 24.456226865263496 10.843226865263496
30.5702268652635 15.3167731347365 11.4362268652635
26.414226865263494 20.0342268652635 24.453226865263495
12.7367731347365 3.7656805957904993 8.858226865263497
25.559226865263504 9.6857731347365 14.0522268652635
0.26768059579049464 23.535773134736502 24.2072268652635
26.9662268652635 30.808319404209502 20.4572268652635
21.864773134736502 17.2547731347365 23.801226865263494
5.432226865263495 16.2157731347365 23.305319404209502
23.036226865263494 29.309773134736503 25.314773134736498
7.841680595790493 14.089319404209501 26.9842268652635
15.7652268652635 3.5482268652635014 31.123773134736503
8.304226865263495 29.4722268652635 29.8997731347365
14.414226865263501 21.498226865263497 15.7077731347365
0.45068059579050157 28.419773134736502 7.139773134736501
9.360773134736501 27.3613194042095 16.785226865263503
22.0097731347365 20.5672268652635 15.9607731347365
7.468680595790502 6.4432268652635045 27.783226865263494
2.7712268652635004 18.6547731347365 22.9357731347365
6.9512268652635 17.1157731347365 0.6992268652635047
2.3892268652635025 4.6417731347365 0.3982268652635028
10.837773134736501 1.1797731347365001 16.790134326317514
15.248773134736501 12.778226865263498 10.656226865263498
2.7652268652635 15.5272268652635 12.3937731347365
22.602226865263496 7.696226865263505 17.3337731347365
25.6922268652635 19.5777731347365 23.154226865263503
29.9847731347365 11.2192268652635 26.062773134736503
17.7927731347365 9.3837731347365 0.44622686526350464
30.062680595790496 27.997773134736498 31.462319404209502
13.0272268652635 19.625226865263507 30.5877731347365
27.309773134736503 1.853226865263501 13.984226865263501
2.857773134736501 11.7622268652635 22.2233194042095
27.203226865263495 7.477226865263496 8.962226865263496
13.020773134736501 17.255226865263502 15.0732268652635
28.2197731347365 28.1537731347365 7.9277731347364995
23.997226865263507 20.1853194042095 5.300226865263504
0.9047731347364998 13.883319404209498 0.421773134736501
2.5037731347365 28.0223194042095 14.0197731347365
24.178865673682495 7.832773134736501 24.6922268652635
17.4932268652635 29.7287731347365 24.1772268652635
1.9862268652634967 13.644134326317513 8.651680595790495
29.8333194042095 7.732680595790498 26.9417731347365
22.160773134736502 28.364226865263497 27.4357731347365
8.7837731347365 12.327226865263505 14.0137731347365
10.0407731347365 3.7567731347365 31.2297731347365
25.1203194042095 3.187773134736501 18.259226865263493
18.376226865263497 4.902226865263501 27.8747731347365
23.4927731347365 29.199226865263505 2.032226865263503
5.240680595790494 18.123226865263497 6.866226865263499
31.0063194042095 27.450226865263495 25.3367731347365
28.419226865263504 10.536226865263501 29.5947731347365
17.2027731347365 27.9693194042095 1.401226865263503
27.3537731347365 29.890226865263493 5.6372268652635
1.7743194042095034 10.7442268652635 15.809773134736501
9.943226865263505 10.605226865263496 22.626226865263497
2.033226865263501 0.36522686526350157 28.7363194042095
12.322226865263495 27.655226865263494 22.4493194042095
27.6747731347365 23.2932268652635 9.7817731347365
15.2897731347365 13.972680595790493 28.947226865263495
