3.9062268652634984 17.2962268652635 19.285226865263503
8.7442268652635 21.3727731347365 3.1297731347364994
3.6691343263175042 12.4397731347365 30.617226865263497
1.1967731347364996 27.6887731347365 20.370226865263497
25.9177731347365 15.997226865263507 30.4993194042095
28.5757731347365 29.755226865263502 13.858226865263497
20.9687731347365 1.0397731347364996 10.911226865263501
30.559865673682495 0.09431940420950724 7.565226865263504
28.983773134736502 19.8262268652635 3.7542268652634974
17.9237731347365 10.550226865263504 11.995226865263497
8.122773134736502 16.2947731347365 5.739226865263497
31.5317731347365 14.548226865263501 9.159226865263498
26.4392268652635 30.7737731347365 19.215226865263496
0.31722686526349975 4.812226865263504 6.324226865263505
26.7767731347365 26.0593194042095 27.4617731347365
27.176226865263494 9.6567731347365 6.084226865263496
10.247680595790499 0.04622686526349895 27.291773134736502
30.7983194042095 6.106226865263501 18.5723194042095
16.2937731347365 28.9512268652635 7.9107731347365
16.2787731347365 28.854226865263506 9.4267731347365
15.4877731347365 6.6342268652635 15.614226865263497
11.814680595790506 1.356134326317516 29.4667731347365
31.812226865263504 30.061773134736498 9.227226865263496
9.243226865263502 10.139773134736501 26.180773134736498
27.989773134736502 13.534226865263498 26.4093194042095
8.9253194042095 29.4567731347365 9.255226865263502
27.562773134736503 27.66368059579051 3.2971343263175044
1.0686805957904966 3.9206805957905004 23.730773134736502
26.3357731347365 18.1687731347365 9.2832268652635
11.1616805957905 28.211226865263505 3.505226865263502
0.30777313473650025 2.9492268652635047 18.506226865263493
3.931773134736501 5.188680595790501 4.557680595790501
7.5642268652635 27.9053194042095 7.8557731347365
2.7227731347364994 4.8567731347365 22.6157731347365
15.808680595790506 20.4327731347365 16.39268059579051
30.9737731347365 25.7557731347365 19.6677731347365
23.0083194042095 2.0587731347364997 9.112680595790493
18.2342268652635 21.4872268652635 18.605680595790503
5.428773134736501 28.2783194042095 7.210773134736501
15.382226865263497 5.426226865263494 1.4477731347365008
0.389773134736501 3.431226865263504 17.236226865263497
20.7872268652635 28.8447731347365 31.7667731347365
19.0707731347365 15.8597731347365 29.638226865263498
13.8992268652635 22.365680595790508 27.1226805957905
31.7953194042095 15.746226865263502 11.3352268652635
27.4717731347365 15.3267731347365 1.1487731347364996
26.953319404209502 6.933680595790506 17.2767731347365
9.2943194042095 18.484680595790508 4.510680595790504
25.5717731347365 20.294226865263504 8.366773134736501
7.902226865263501 7.449226865263505 12.732226865263499
24.275226865263498 6.1957731347365 31.313226865263495
6.7987731347365 9.6892268652635 27.4877731347365
12.031680595790505 21.937226865263504 27.851226865263506
22.9763194042095 17.8417731347365 6.285226865263503
13.953226865263495 28.9212268652635 24.0743194042095
5.4427731347365 1.1972268652634952 15.9497731347365
4.077680595790497 20.0027731347365 27.9077731347365
22.7157731347365 16.0567731347365 6.432680595790501
19.8417731347365 17.687226865263504 23.3057731347365
17.203226865263495 20.9717731347365 16.650226865263498
1.796773134736501 26.7317731347365 11.917226865263501
17.883226865263502 26.4177731347365 22.419226865263504
25.4187731347365 28.828226865263495 5.2132268652635005
4.8932268652635 19.9277731347365 3.2512268652634972
25.7197731347365 29.4863194042095 22.373226865263497
4.048226865263501 21.809226865263504 1.6332268652635022
26.6827731347365 24.331226865263496 28.8177731347365
13.270226865263503 24.808773134736498 0.8132268652634949
21.583226865263505 16.9677731347365 22.3977731347365
15.992226865263497 28.767319404209502 8.583680595790497
21.3743194042095 6.470226865263498 9.754680595790504
19.1387731347365 20.3052268652635 22.6957731347365
31.2717731347365 14.968226865263496 28.422773134736502
30.0867731347365 23.681226865263504 18.863226865263506
11.167226865263501 15.379226865263497 2.109134326317516
7.3056805957905055 26.3262268652635 23.9963194042095
11.6342268652635 26.7313194042095 0.8222268652634952
23.6617731347365 28.4133194042095 2.3172268652634997
17.1616805957905 7.423226865263501 15.951680595790506
1.0137731347364998 4.609680595790493 32.113226865263506
28.0792268652635 12.2377731347365 20.108773134736502
10.252226865263502 30.157319404209503 0.8177731347365
21.1927731347365 0.0767731347364986 7.7727731347365
4.8722268652634995 3.671773134736501 12.4942268652635
14.5807731347365 8.8527731347365 18.2707731347365
12.5043194042095 5.623226865263497 3.7516805957905035
1.998773134736501 27.180319404209502 13.0332268652635
23.2853194042095 18.650226865263498 7.660319404209499
12.9057731347365 4.2497731347365 9.732773134736501
7.2767731347365 29.5677731347365 9.154226865263503
19.193226865263505 27.318226865263505 26.435226865263495
24.6622268652635 0.12477313473650042 11.6387731347365
4.0357731347365 31.357319404209502 25.686773134736498
26.836680595790497 17.878319404209503 16.28868059579051
11.2147731347365 25.559773134736503 11.4747731347365
10.327226865263505 10.257226865263497 28.440226865263504
31.6007731347365 6.566680595790501 19.062226865263504
16.0203194042095 27.380226865263502 7.5677731347365
1.5042268652634974 12.590680595790502 6.7507731347365
30.8447731347365 12.409226865263498 23.5513194042095
12.674680595790505 0.26877313473650055 26.5327731347365
27.619226865263506 9.244773134736501 8.2102268652635
6.375680595790499 31.467226865263505 18.29168059579051
18.0402268652635 8.188680595790501 31.747319404209502
1.6256805957904987 15.014226865263502 10.179319404209497
19.6843194042095 26.554226865263495 15.171773134736501
6.3987731347365 3.464226865263498 17.3057731347365
6.143680595790499 31.3477731347365 19.343680595790502
24.425773134736502 1.626134326317512 11.588773134736499
25.218226865263496 13.9433194042095 13.565226865263504
11.099226865263496 10.991773134736501 29.181680595790496
13.6977731347365 4.114773134736501 0.6162268652634992
3.9096805957905048 20.2867731347365 27.556680595790496
21.9477731347365 3.1987731347365003 1.3697731347364996
4.242226865263497 22.142319404209502 13.0187731347365
16.724226865263496 14.1617731347365 0.5902268652634959
9.2637731347365 3.5212268652635004 23.829680595790506
15.484226865263501 7.734680595790493 17.632226865263497
2.0246805957904996 26.6152268652635 18.3682268652635
29.402226865263493 29.2683194042095 14.6522268652635
20.481680595790507 26.771226865263493 26.4003194042095
16.637226865263493 3.5877731347364996 9.0972268652635
31.8237731347365 4.607680595790498 22.831319404209502
26.7587731347365 15.1887731347365 24.6682268652635
23.6653194042095 26.4617731347365 10.0657731347365
24.191226865263495 15.793773134736501 14.7667731347365
21.568680595790497 21.6587731347365 29.050773134736502
26.1107731347365 13.078226865263495 1.035134326317504
1.825773134736501 6.888680595790504 18.0617731347365
11.3906805957905 10.024773134736499 23.187226865263504
1.6001343263175158 11.3967731347365 31.0612268652635
19.1603194042095 17.8057731347365 10.6787731347365
14.2956805957905 22.3727731347365 22.8652268652635
25.0667731347365 23.483226865263497 21.134134326317508
18.369226865263506 14.114226865263497 19.473226865263506
16.1447731347365 15.5907731347365 0.4712268652634961
11.5732268652635 30.6683194042095 14.577226865263505
24.069226865263495 0.42422686526349906 11.244773134736501
16.7747731347365 19.9237731347365 10.8107731347365
13.915226865263499 5.085773134736501 17.257226865263497
1.3563194042095041 4.937773134736501 7.172134326317504
28.7932268652635 14.0577731347365 26.8713194042095
27.5677731347365 18.3267731347365 31.5217731347365
14.5732268652635 4.729773134736501 1.904226865263503
22.26768059579051 29.5407731347365 17.9452268652635
9.828773134736501 27.874226865263502 1.1572268652635032
20.974773134736502 18.854226865263506 25.355773134736502
31.861226865263497 2.0686805957904966 22.0342268652635
19.077226865263505 0.9012268652635029 20.3713194042095
22.4007731347365 22.297773134736502 0.31568059579049645
14.1487731347365 8.505226865263502 16.2782268652635
5.6496805957905 6.4872268652635015 12.839680595790497
19.8412268652635 0.08668059579049725 2.1787731347365007
26.7012268652635 14.1017731347365 13.2607731347365
17.6826805957905 6.9092268652634985 21.814319404209503
28.1107731347365 4.121226865263502 5.033773134736501
17.2257731347365 20.4347731347365 10.334226865263496
19.5517731347365 26.4737731347365 1.1867731347364998
11.9707731347365 30.8943194042095 22.399226865263493
30.8217731347365 3.675226865263504 24.5792268652635
1.8736805957905034 17.4337731347365 20.3733194042095
2.1837731347364997 6.313226865263495 17.7077731347365
0.36222686526350145 6.6487731347365 2.8086805957905057
7.367226865263497 30.923226865263494 9.769226865263498
26.878319404209503 29.672226865263504 2.7507731347365
10.3237731347365 29.413773134736502 2.738226865263499
13.5702268652635 31.2177731347365 24.8262268652635
28.537680595790505 12.669226865263504 24.2453194042095
15.3902268652635 10.311319404209502 4.5357731347365
17.973226865263506 20.418680595790505 12.532226865263503
24.9573194042095 23.9767731347365 20.800226865263504
26.9827731347365 28.5287731347365 0.4707731347365005
22.608588056844496 3.442680595790506 25.3357731347365
20.0287731347365 19.5282268652635 24.092226865263505
8.650680595790504 13.3657731347365 14.3367731347365
28.231865673682506 6.0605880568444945 28.616773134736498
13.4637731347365 10.488773134736501 6.5812268652634955
24.828226865263495 2.557680595790501 10.5547731347365
19.8267731347365 28.663226865263503 23.1377731347365
5.835773134736501 27.2368656736825 6.31613432631751
25.9963194042095 26.4212268652635 0.6157731347365001
1.4362268652634995 0.5757731347365009 8.1577731347365
16.3647731347365 8.132226865263497 18.4087731347365
3.3727731347364998 18.483773134736502 19.520319404209502
19.8543194042095 21.114773134736502 12.3997731347365
2.177226865263499 13.303226865263504 29.5737731347365
12.3352268652635 23.519226865263498 28.756226865263493
12.3977731347365 24.875226865263507 1.904680595790495
23.65768059579051 19.2513194042095 7.4937731347365
25.102773134736502 2.940773134736501 4.359680595790493
22.2737731347365 2.330226865263505 0.8037731347365007
13.775226865263498 16.429226865263495 25.957680595790507
3.4267731347365 4.3292268652635 21.6867731347365
13.160226865263503 5.2607731347365 0.7706805957904947
28.373773134736503 28.837226865263496 21.991226865263506
10.299773134736501 9.034226865263498 12.9017731347365
14.0977731347365 30.5907731347365 23.631226865263493
7.174319404209502 3.590226865263496 11.1552268652635
18.8127731347365 13.3907731347365 18.8407731347365
21.0407731347365 15.7192268652635 26.455226865263505
9.8587731347365 18.9477731347365 5.8587731347365
29.5547731347365 32.1683194042095 21.9887731347365
20.7467731347365 7.047680595790496 19.2677731347365
18.400226865263498 0.5912268652635007 4.2787731347365
28.2697731347365 3.4812268652635012 4.352226865263496
0.8992268652635005 31.9873194042095 8.0057731347365
19.245226865263497 27.90468059579051 27.456319404209502
12.1097731347365 28.691226865263495 25.3863194042095
1.319226865263495 26.7513194042095 19.0467731347365
12.2177731347365 29.062773134736503 0.3672268652634969
15.44113432631751 8.9067731347365 23.669773134736502
4.300226865263504 16.9557731347365 3.3582268652634966
11.310680595790501 29.083226865263505 3.197226865263495
8.036319404209504 6.078319404209498 14.6967731347365
10.659680595790505 25.8347731347365 12.801319404209497
30.9357731347365 25.360226865263506 11.4632268652635
25.744226865263506 15.0067731347365 14.0347731347365
16.3777731347365 20.3297731347365 15.8947731347365
10.497773134736502 6.310226865263495 3.2842268652634985
4.924773134736501 20.391226865263498 26.0777731347365
29.1217731347365 14.755226865263502 5.2187731347365
11.302773134736501 23.1797731347365 28.8457731347365
3.2162268652635007 4.974226865263496 5.244226865263499
24.6862268652635 13.2487731347365 1.056226865263504
25.8803194042095 28.363226865263506 4.589226865263498
12.0488656736825 8.3267731347365 17.308588056844513
20.9177731347365 1.0752268652634953 2.9367731347365
10.8507731347365 17.994319404209502 5.6666805957904955
29.5047731347365 30.3523194042095 9.7012268652635
13.5912268652635 8.296680595790505 19.7807731347365
6.0527731347364995 1.049319404209502 1.0416805957904955
27.76768059579051 28.877226865263502 19.9812268652635
30.922865673682495 5.450680595790502 22.4357731347365
2.083226865263498 12.152773134736501 30.4997731347365
31.0953194042095 5.9977731347365 22.7177731347365
10.178226865263504 18.3457731347365 6.353680595790493
14.541226865263503 9.154773134736502 6.4452268652635
22.1373194042095 1.2437731347365002 27.0913194042095
25.0103194042095 27.3763194042095 3.023680595790495
0.3357731347365007 14.542226865263501 28.3577731347365
27.9752268652635 26.3277731347365 4.3932268652635
11.4357731347365 22.3257731347365 28.032319404209503
22.8682268652635 28.4637731347365 14.7927731347365
31.601226865263506 25.902226865263493 18.3257731347365
30.000865673682497 29.624226865263502 6.3356805957904925
25.9827731347365 15.9597731347365 31.2027731347365
8.406226865263498 3.8902268652635 24.3217731347365
16.611226865263497 21.4332268652635 9.106680595790493
30.782226865263503 11.367773134736499 16.884773134736502
30.8337731347365 12.2626805957905 18.158226865263494
4.924226865263499 19.340226865263496 11.8523194042095
8.4177731347365 7.481226865263501 14.2802268652635
6.3887731347365 20.6747731347365 5.200773134736501
10.7787731347365 0.7437731347365002 28.7327731347365
24.311773134736498 15.6282268652635 13.3427731347365
6.816773134736501 28.8977731347365 0.3942268652634979
3.376773134736501 17.7257731347365 19.8937731347365
13.353226865263501 5.0957731347365005 17.8827731347365
25.8843194042095 26.313226865263495 3.5402268652634987
25.514226865263502 27.000226865263507 4.8842268652635
28.2097731347365 14.4147731347365 23.843319404209502
0.6382268652634977 13.7837731347365 9.541226865263503
19.9387731347365 27.0672268652635 25.7483194042095
22.7547731347365 6.941773134736501 0.4882268652634991
31.0027731347365 30.946226865263505 23.4237731347365
30.0137731347365 32.0547731347365 8.1607731347365
17.654226865263503 5.183680595790506 24.7667731347365
1.8956805957904947 5.2047731347365005 4.342226865263498
24.8777731347365 1.7977731347365005 9.7807731347365
17.39868059579051 7.2302268652634964 21.0967731347365
15.7617731347365 8.831773134736501 15.9302268652635
22.8112268652635 17.0547731347365 24.176226865263494
5.2687731347365006 17.1682268652635 17.1987731347365
2.8242268652635047 25.488773134736498 18.382226865263497
11.8382268652635 6.124226865263502 17.5822268652635
15.7267731347365 10.242226865263497 26.748226865263497
3.0427731347364997 4.184773134736501 5.6777731347364995
8.370773134736499 5.789226865263501 11.539226865263501
21.3903194042095 26.371226865263502 9.6637731347365
19.742226865263497 27.9387731347365 0.038226865263503385
2.3342268652634957 8.1402268652635 4.6252268652635
16.4227731347365 26.3447731347365 8.709773134736501
7.9802268652634964 27.4602268652635 7.0867731347365
12.0747731347365 28.4727731347365 21.5282268652635
1.036226865263501 29.3537731347365 0.5236805957904949
18.2677731347365 16.1247731347365 31.62768059579051
22.9752268652635 29.004226865263497 14.748134326317512
17.4897731347365 20.8237731347365 9.7697731347365
6.467226865263498 19.8022268652635 1.0982268652634986
31.107226865263506 13.6327731347365 9.4877731347365
26.8292268652635 29.578226865263495 23.7587731347365
6.663226865263503 2.011773134736501 11.578773134736501
14.748226865263497 15.2447731347365 7.058226865263499
25.3523194042095 7.803226865263504 12.102226865263496
31.4017731347365 26.1487731347365 17.2327731347365
15.7656805957905 19.854226865263506 9.7727731347365
29.5823194042095 25.3987731347365 13.6587731347365
7.625680595790499 8.5697731347365 12.098226865263499
13.120226865263497 31.523226865263503 15.751773134736501
11.9297731347365 17.641588056844512 8.654226865263503
25.108773134736502 14.854319404209502 18.0552268652635
25.0543194042095 5.7887731347365 29.6687731347365
26.8333194042095 14.167226865263501 31.139319404209502
7.883226865263502 16.7137731347365 6.337226865263496
27.8163194042095 26.318226865263505 28.9157731347365
26.3173194042095 8.975226865263501 8.7562268652635
25.659680595790505 13.0917731347365 0.4727731347364994
4.8112268652634995 14.4037731347365 12.3747731347365
7.4557731347365 5.665226865263499 11.185680595790501
10.7977731347365 28.9027731347365 31.8187731347365
9.428226865263504 2.7532268652634997 3.1862268652634995
7.4437731347364995 18.77068059579051 6.426680595790501
3.8947731347365 19.6532268652635 3.3906805957904993
26.4093194042095 5.0847731347364995 28.556226865263504
9.758319404209498 16.5687731347365 8.069226865263495
25.3943194042095 7.332773134736501 12.9692268652635
7.9587731347365 11.725319404209504 25.491226865263506
17.1547731347365 26.599226865263496 26.3427731347365
20.7937731347365 7.075773134736501 10.392226865263503
3.708680595790497 18.6062268652635 18.8967731347365
19.4283194042095 5.425773134736501 5.8107731347365
3.126134326317512 18.9242268652635 18.2897731347365
29.828226865263495 22.4587731347365 19.7897731347365
21.4873194042095 1.2907731347365008 15.586134326317506
10.964680595790497 23.485319404209502 26.254226865263497
6.1057731347365 26.9757731347365 24.929226865263495
28.749226865263502 22.4917731347365 5.731226865263501
24.322226865263495 11.563319404209498 28.3232268652635
7.432226865263495 24.4907731347365 11.837773134736501
1.5267731347364997 29.5137731347365 7.058319404209502
1.1262268652634972 3.322773134736501 21.9557731347365
28.474773134736502 19.0497731347365 30.3883194042095
7.9236805957905005 10.9942268652635 28.2567731347365
27.2197731347365 16.0942268652635 17.611226865263497
0.330226865263505 4.594680595790493 17.6907731347365
17.5437731347365 22.092226865263505 10.328226865263495
24.7437731347365 15.710865673682505 8.869773134736501
8.5127731347365 30.5697731347365 10.113773134736501
1.350226865263501 11.767773134736501 8.081226865263496
1.2407731347365 29.439773134736498 7.945680595790506
1.053226865263504 14.921226865263499 6.846226865263496
24.8622268652635 5.230680595790503 18.7927731347365
18.995226865263497 14.971226865263496 17.511226865263502
17.905226865263494 20.8467731347365 9.837680595790502
10.0827731347365 24.1347731347365 14.1862268652635
9.3943194042095 1.7577731347364995 3.388680595790504
11.810226865263495 8.083411943155497 2.3587731347365004
2.2006805957905016 11.463773134736499 30.810226865263495
4.905226865263501 19.5637731347365 10.370226865263497
0.9336805957905057 4.806773134736501 30.861773134736502
15.2117731347365 20.4957731347365 9.0612268652635
23.071226865263505 7.2072268652635 31.964226865263505
24.4577731347365 26.639319404209502 3.2032268652634954
7.6052268652634964 19.4662268652635 2.7187731347365
27.4427731347365 15.490319404209497 32.120773134736496
0.5696805957905013 25.747773134736498 18.980773134736502
6.0016805957905035 21.1337731347365 13.678226865263504
6.4147731347365 21.242226865263497 4.8622268652635015
30.505865673682507 8.045226865263501 1.5816805957905018
9.037680595790505 8.306226865263504 14.0137731347365
12.8632268652635 0.3736805957905034 24.4537731347365
11.1757731347365 26.1002268652635 13.1772268652635
29.7693194042095 25.4767731347365 12.982226865263499
7.067319404209503 4.255773134736501 12.8082268652635
3.3666805957904984 30.001226865263497 0.2857731347365
5.4562268652634955 27.5207731347365 6.847773134736499
17.1127731347365 20.4293194042095 8.163226865263503
8.4512268652635 15.653680595790505 12.4397731347365
22.9317731347365 1.9662268652635007 23.607226865263506
5.802226865263499 15.2712268652635 11.590773134736502
30.1507731347365 24.3052268652635 20.2297731347365
8.0242268652635 11.571680595790497 26.1063194042095
23.254226865263497 1.8716805957904938 8.639134326317503
6.6187731347365 2.6832268652634994 16.1182268652635
2.2852268652635033 29.7877731347365 31.1913194042095
23.5847731347365 5.825226865263495 30.482319404209502
8.0357731347365 20.7402268652635 3.4947731347364996
30.5687731347365 12.1862268652635 16.474773134736502
9.653680595790505 11.626226865263497 25.864773134736502
3.3667731347364995 3.873226865263497 25.428773134736502
24.4983194042095 15.712226865263496 1.7717731347365007
2.8277731347365 30.7933194042095 0.43922686526349963
11.6577731347365 0.468226865263496 28.9607731347365
5.585773134736501 19.0777731347365 2.3862268652635024
19.0237731347365 32.1052268652635 20.621226865263502
7.6447731347365 30.4473194042095 9.7072268652635
25.525226865263498 27.4963194042095 2.3386805957904926
29.577865673682496 12.2626805957905 2.056226865263504
3.286226865263501 27.687773134736503 31.9663194042095
0.1546805957904951 6.983134326317511 3.1553194042095036
30.7483194042095 16.197319404209498 11.183319404209502
16.1357731347365 11.717588056844505 5.261319404209498
18.4873194042095 22.9512268652635 11.3747731347365
2.6277731347365005 14.3407731347365 31.5153194042095
24.214226865263505 26.316226865263495 28.1517731347365
0.8282268652634954 26.5113194042095 0.11622686526349923
0.8257731347365009 2.5377731347365007 24.9633194042095
24.7013194042095 17.494226865263506 6.9392268652635
25.2497731347365 5.1312268652635 30.399226865263493
30.390226865263493 11.7977731347365 25.364773134736502
26.455226865263505 6.136226865263502 16.4692268652635
5.309226865263504 2.2582268652635022 16.8157731347365
5.827319404209501 30.2133194042095 9.049226865263499
25.800134326317504 30.930680595790506 18.8876805957905
12.356134326317516 15.5047731347365 19.9536805957905
6.9802268652634964 7.735226865263499 12.4997731347365
27.3442268652635 8.829319404209503 8.732680595790498
19.1093194042095 28.4687731347365 31.3937731347365
9.8177731347365 2.1792268652634945 4.224226865263496
28.4657731347365 28.913773134736502 20.169773134736502
25.7677731347365 15.553226865263504 16.2417731347365
10.709226865263496 24.8217731347365 0.566226865263495
31.614773134736502 14.020773134736501 9.056773134736499
12.0197731347365 28.0187731347365 3.245773134736501
20.0017731347365 3.0446805957904957 15.473319404209501
11.7847731347365 9.001134326317512 23.119226865263506
1.3906805957904993 6.399773134736501 2.4627731347364996
12.129680595790504 5.672680595790496 4.437226865263504
12.9272268652635 31.8377731347365 28.0837731347365
5.5037731347365 1.3626805957904935 15.529226865263503
27.250773134736498 27.7926805957905 26.900226865263498
10.1663194042095 3.9837731347365004 2.3072268652634946
5.755680595790494 17.203226865263495 20.0827731347365
22.9487731347365 17.853680595790507 26.227773134736502
22.8673194042095 18.9583194042095 8.033773134736501
10.996226865263502 29.3232268652635 23.961226865263505
3.556226865263504 19.2347731347365 1.1792268652634945
22.9893194042095 19.9467731347365 7.723773134736501
11.107773134736501 6.080226865263505 3.8331343263175057
17.700226865263495 6.683865673682504 18.2457731347365
23.7727731347365 18.4497731347365 17.1357731347365
2.4846805957904934 14.602226865263496 27.6772268652635
8.609680595790493 19.2487731347365 2.8842268652635
9.583226865263498 11.950773134736501 26.7042268652635
0.6447731347365 11.693226865263505 32.0012268652635
1.6862268652634995 19.4797731347365 11.761319404209498
21.804226865263495 18.5067731347365 22.879226865263497
28.452226865263505 10.9512268652635 7.0366805957905
10.0182268652635 22.2837731347365 11.1826805957905
0.7887731347365001 27.0467731347365 1.0446805957904957
18.2107731347365 18.916773134736502 9.5277731347365
14.595226865263498 7.011773134736501 18.616226865263506
2.6422268652635026 19.905226865263494 10.165226865263499
16.9062268652635 8.3297731347365 18.443226865263505
21.923226865263494 30.5762268652635 17.5837731347365
30.3597731347365 21.9677731347365 21.0126805957905
19.8247731347365 30.465226865263496 4.3507731347364995
4.6317731347365 18.779226865263503 17.557226865263495
14.4482268652635 7.2372268652635015 16.256773134736502
5.106226865263501 5.847226865263501 12.507226865263497
1.0616805957905058 27.229226865263506 20.132865673682502
0.5956805957904976 6.354226865263499 3.5417731347365002
18.966680595790507 18.7577731347365 23.494588056844492
15.1233194042095 29.1183194042095 10.8382268652635
0.7867731347364995 6.989773134736501 2.5563194042095
19.0727731347365 5.306226865263504 26.861773134736502
21.3562268652635 2.634319404209503 16.644226865263498
6.6277731347365005 1.4862268652634967 1.7856805957904953
17.9272268652635 19.2217731347365 16.8387731347365
10.089226865263498 23.5627731347365 20.110226865263506
21.6407731347365 15.4056805957905 24.712680595790502
19.7252268652635 28.4953194042095 24.294226865263504
4.426226865263494 12.7832268652635 13.8442268652635
21.669226865263504 0.7357731347365011 8.5727731347365
0.8026805957905054 25.3367731347365 21.191226865263495
16.0537731347365 12.697226865263495 6.9162268652635035
25.5187731347365 28.9017731347365 21.089226865263505
5.2767731347365 19.462319404209502 0.583226865263498
30.5437731347365 12.7667731347365 17.1277731347365
18.427680595790505 7.0007731347365 16.3037731347365
26.569226865263495 29.883865673682507 21.303773134736502
12.787226865263499 22.208226865263505 25.080226865263505
2.857226865263499 3.4436805957904966 24.0607731347365
0.7086805957904971 27.4057731347365 31.9457731347365
25.6327731347365 30.4003194042095 22.9647731347365
10.5227731347365 19.6857731347365 5.912680595790505
28.5702268652635 28.3423194042095 4.1417731347365
28.491773134736498 10.644865673682503 18.9916805957905
17.7547731347365 29.0103194042095 9.870226865263497
12.4912268652635 1.5182268652635003 28.828226865263495
4.662226865263499 10.2697731347365 20.6233194042095
15.293226865263499 8.761226865263502 4.803680595790496
1.3876805957904992 5.7502268652635 18.7487731347365
12.0937731347365 30.4647731347365 21.4602268652635
17.229226865263506 15.9357731347365 29.899226865263493
11.488773134736501 5.7117731347365 5.0642268652635
12.3877731347365 30.9017731347365 14.8617731347365
9.812226865263504 13.8632268652635 13.6997731347365
26.0107731347365 12.885226865263498 14.1387731347365
21.1477731347365 1.5542268652634945 3.6827731347365003
17.6343194042095 6.6637731347365 16.8652268652635
4.677226865263499 17.4512268652635 18.736226865263497
23.4722268652635 1.1357731347364997 8.0377731347365
10.034226865263498 15.7527731347365 5.907680595790495
26.4662268652635 14.0047731347365 2.165773134736501
23.635226865263498 15.2023194042095 6.0032268652635
1.5872268652634958 30.6797731347365 1.0322268652635032
17.8137731347365 6.741226865263499 19.5097731347365
5.94986567368251 1.668680595790505 3.498134326317512
30.1297731347365 4.8312268652634955 23.620226865263497
21.9957731347365 26.631226865263493 9.161226865263501
7.158319404209504 16.3617731347365 5.2887731347365
25.4667731347365 14.4947731347365 14.3382268652635
4.466226865263501 19.8867731347365 27.0837731347365
13.0967731347365 27.0087731347365 1.0762268652635
20.431226865263504 26.541773134736502 15.823680595790506
8.1587731347365 5.815226865263504 2.9376805957904963
25.6873194042095 26.215319404209502 2.4422268652634997
11.038226865263503 3.978226865263501 22.9842268652635
17.4842268652635 15.991226865263506 31.4752268652635
29.843226865263496 14.557319404209498 4.992773134736501
9.3447731347365 2.4091343263175133 5.3877731347365
27.671319404209502 12.671319404209502 23.922226865263504
16.8367731347365 2.025226865263498 15.721226865263496
21.8287731347365 14.8292268652635 23.4877731347365
23.9113194042095 24.5887731347365 19.3263194042095
27.788226865263503 5.469226865263501 27.995773134736503
20.044773134736502 23.6867731347365 28.2287731347365
10.654226865263503 8.956773134736501 2.5342268652634985
24.6957731347365 17.124226865263502 6.846319404209499
30.872773134736498 31.308319404209502 22.463865673682506
27.50568059579051 14.482773134736501 26.205680595790497
7.188226865263495 11.2597731347365 26.245226865263497
3.0496805957905053 22.4557731347365 3.016226865263498
28.4373194042095 23.3137731347365 13.7042268652635
28.3533194042095 29.3243194042095 1.721226865263496
2.4842268652635013 28.1922268652635 1.373773134736501
19.208226865263505 27.079680595790506 27.125319404209502
21.7117731347365 0.5366805957905001 9.914226865263501
7.0907731347365 28.6827731347365 5.555226865263499
15.7637731347365 3.9657731347364997 24.848226865263506
27.2617731347365 24.440773134736503 7.9677731347365
24.8438656736825 25.425680595790496 28.087226865263496
6.941773134736501 3.9832268652634966 17.6577731347365
5.923226865263501 3.4717731347365 11.514319404209498
10.7847731347365 21.852773134736502 26.1832268652635
24.5993194042095 2.187773134736501 9.245226865263497
10.959773134736501 4.9427731347365 23.1813194042095
14.955226865263505 7.9367731347365 16.027226865263493
7.117226865263497 26.1652268652635 25.2187731347365
11.279680595790495 17.882865673682502 6.976226865263499
28.631226865263493 15.556226865263504 24.5897731347365
4.985680595790498 18.9907731347365 4.8087731347365
28.1993194042095 17.888226865263498 16.733226865263497
25.6563194042095 18.141226865263498 18.0317731347365
9.613680595790498 2.5967731347365 21.8377731347365
9.0087731347365 6.408773134736501 4.2667731347365
26.242773134736503 6.4167731347365 30.3217731347365
4.2742268652635005 30.4607731347365 27.2023194042095
18.771226865263493 6.613773134736499 17.7207731347365
24.6797731347365 26.6537731347365 4.465226865263496
23.4662268652635 7.630226865263502 30.720226865263506
14.4697731347365 31.160226865263503 8.828773134736501
12.040226865263499 15.809226865263504 1.3202268652634999
20.4332268652635 1.4493194042095006 16.989226865263497
31.9997731347365 6.617773134736501 3.309226865263504
12.758680595790494 27.189319404209503 2.681773134736501
30.663773134736502 12.234226865263501 20.756226865263493
23.1457731347365 25.2543194042095 10.559226865263504
11.858226865263497 19.904226865263503 28.5817731347365
1.610226865263499 8.030773134736501 4.385680595790504
24.6653194042095 17.343319404209502 15.2427731347365
10.7192268652635 10.674680595790505 30.0762268652635
23.9557731347365 28.5607731347365 4.510680595790504
2.2495880568444875 2.653319404209501 23.291773134736502
20.4817731347365 28.5737731347365 23.6843194042095
15.5067731347365 28.9513194042095 9.984226865263501
10.183773134736501 26.8352268652635 32.000319404209506
29.3477731347365 0.47268059579049293 27.911226865263494
1.1922268652634997 13.578226865263495 30.595226865263506
28.744773134736498 1.3522268652634963 14.1282268652635
6.2697731347365 11.5707731347365 26.5147731347365
24.7837731347365 16.217226865263505 30.6273194042095
19.580680595790497 29.061773134736498 21.589226865263505
26.858680595790503 29.929226865263495 22.260226865263498
20.203226865263495 21.0067731347365 3.0402268652634987
27.367773134736503 19.8163194042095 29.1157731347365
1.5647731347365 4.6777731347364995 0.881680595790499
15.309773134736501 7.066226865263495 18.481865673682506
5.5357731347365 26.6547731347365 7.386226865263502
25.3957731347365 9.2682268652635 7.720226865263498
22.884226865263493 26.953226865263495 14.970226865263498
13.0287731347365 20.4953194042095 28.486680595790503
29.030226865263494 31.062226865263504 23.1207731347365
30.9817731347365 7.384680595790499 1.3522268652634963
1.0326805957904952 3.1602268652635033 18.3157731347365
6.382680595790504 28.1802268652635 23.9633194042095
11.7187731347365 25.241226865263506 11.712773134736501
17.569226865263495 5.9277731347364995 16.9097731347365
3.5842268652634957 12.261134326317503 0.4581343263175057
8.479226865263499 26.135226865263498 10.769226865263498
8.5927731347365 12.694226865263495 28.247773134736498
31.7827731347365 14.423319404209504 28.9093194042095
26.6023194042095 19.1707731347365 7.607680595790498
9.497773134736502 31.2837731347365 15.2087731347365
5.106226865263501 27.700319404209502 7.6087731347365
0.0792268652635002 12.8722268652635 31.857226865263506
26.2347731347365 18.5717731347365 31.0503194042095
8.6537731347365 28.5522268652635 7.629773134736499
26.309773134736503 14.590226865263496 1.529226865263503
28.6577731347365 22.102773134736502 3.9296805957905008
25.9017731347365 10.498226865263497 7.158226865263501
19.894226865263498 19.9553194042095 2.988226865263499
23.7187731347365 1.1203194042095 9.0077731347365
22.7927731347365 17.792226865263494 7.7977731347365005
19.2517731347365 20.351226865263506 23.4722268652635
16.062226865263504 13.5837731347365 17.6557731347365
24.3367731347365 14.4677731347365 14.975226865263501
19.6127731347365 27.500226865263507 21.1177731347365
18.917226865263494 28.617773134736503 0.6696805957904957
21.0067731347365 26.4487731347365 23.453226865263495
0.016773134736499884 2.2512268652634972 18.251226865263497
20.9722268652635 21.1213194042095 29.470680595790498
29.0757731347365 28.8337731347365 8.2012268652635
8.8063194042095 5.086680595790497 24.0548656736825
2.729773134736501 18.8137731347365 1.1357731347364997
26.2842268652635 3.3822268652634975 3.5456805957905004
7.716226865263501 17.7197731347365 6.609680595790493
3.205226865263505 21.3073194042095 5.683680595790506
31.6527731347365 4.8407731347365 24.7103194042095
7.657226865263503 27.811319404209502 6.153226865263498
16.875319404209502 28.238773134736498 11.8632268652635
9.4082268652635 14.2527731347365 12.756680595790499
23.6077731347365 24.908226865263494 9.6027731347365
1.1182268652635017 27.2127731347365 25.160226865263503
28.0612268652635 17.4277731347365 28.872773134736498
9.7077731347365 6.0297731347365 2.6667731347365002
25.145319404209502 27.2863194042095 2.0572268652634946
5.479680595790498 18.4326805957905 5.227226865263496
7.661226865263501 22.124226865263502 5.024773134736501
6.290319404209502 27.9647731347365 5.731226865263501
8.1897731347365 21.400134326317513 5.8687731347365
3.9022268652635006 18.9733194042095 26.589680595790497
14.272226865263498 2.279680595790495 8.558680595790506
27.0822268652635 7.5457731347365 27.837226865263496
30.166773134736502 15.2637731347365 6.441226865263495
6.746226865263502 18.421319404209502 5.714226865263498
9.3227731347365 29.6913194042095 7.6737731347365
17.937226865263504 31.4967731347365 5.408773134736501
21.7047731347365 31.3887731347365 10.339319404209501
28.6937731347365 19.5327731347365 29.7717731347365
5.9802268652634964 13.572226865263495 12.418319404209502
9.1402268652635 9.2532268652635 27.705226865263505
6.437773134736501 3.1562268652634984 18.283226865263494
23.873226865263497 25.363226865263506 20.7447731347365
16.416773134736502 25.800226865263504 7.708680595790497
2.661226865263501 27.3423194042095 13.3187731347365
19.5967731347365 18.4827731347365 23.4347731347365
0.43368059579050566 3.4606805957904925 23.360319404209502
28.3193194042095 31.1203194042095 14.0037731347365
9.995226865263497 5.236680595790503 3.4147731347364996
13.0007731347365 24.0852268652635 15.510680595790504
13.876226865263497 31.2073194042095 24.125226865263507
25.1297731347365 18.647226865263498 16.2836805957905
26.7227731347365 15.438226865263495 17.973226865263506
19.038226865263503 14.096226865263496 29.994773134736498
6.697773134736501 17.866226865263506 2.5596805957904962
7.152773134736501 29.032319404209503 27.111773134736502
8.4086805957905 8.1477731347365 12.254680595790504
30.8237731347365 4.376773134736501 23.5277731347365
27.447226865263495 5.7507731347365 27.4217731347365
1.3807731347365007 28.1592268652635 21.1037731347365
10.8752268652635 28.8627731347365 23.315226865263504
9.701680595790492 6.370680595790503 12.3613194042095
8.982226865263499 20.9182268652635 6.258226865263502
18.942773134736502 0.5566805957904961 9.549226865263499
16.021226865263493 30.6747731347365 10.113773134736501
14.2257731347365 30.136226865263502 23.616319404209502
19.2163194042095 5.796134326317514 25.8683194042095
28.654319404209502 31.5097731347365 14.6547731347365
0.5892268652634982 13.6887731347365 29.7027731347365
6.017226865263503 19.297226865263504 6.184226865263504
2.5227731347365 11.806226865263504 31.4527731347365
15.332680595790492 6.1637731347365 19.2927731347365
9.0517731347365 3.956773134736501 11.532680595790495
14.892319404209498 22.9206805957905 22.6647731347365
11.1957731347365 5.312226865263504 16.6853194042095
26.2687731347365 5.5612268652634995 17.4587731347365
21.4307731347365 28.736226865263497 18.0552268652635
7.0882268652635005 20.3597731347365 7.221319404209499
13.7307731347365 6.4527731347365 17.703226865263495
23.4793194042095 17.7363194042095 9.318680595790497
24.642226865263503 15.0127731347365 31.4173194042095
2.5317731347365005 16.7387731347365 16.729226865263506
17.959226865263496 31.3103194042095 4.626226865263497
8.133680595790494 26.0497731347365 18.3167731347365
11.123226865263497 3.6257731347365 3.1396805957904945
2.2717731347365007 3.3512268652634987 24.3607731347365
27.1043194042095 27.8543194042095 5.0212268652635
7.5167731347365 20.951680595790506 5.577680595790497
25.349226865263496 13.3307731347365 14.8442268652635
5.6277731347365005 28.991319404209502 5.488226865263499
25.815773134736503 16.5492268652635 8.776226865263503
11.3437731347365 22.766226865263498 19.3917731347365
1.742226865263497 23.800773134736502 18.169226865263504
23.497588056844506 17.7746805957905 24.767226865263503
26.459226865263496 15.851319404209502 31.3937731347365
17.2387731347365 27.857226865263506 27.6447731347365
10.648226865263503 2.4302268652634993 22.3003194042095
1.6537731347365003 14.065226865263504 11.3232268652635
1.700773134736501 19.8617731347365 0.5807731347364999
8.169226865263504 25.1862268652635 10.424773134736501
17.3367731347365 10.150680595790504 6.825226865263495
13.6697731347365 4.741226865263499 10.5942268652635
31.4217731347365 5.788226865263503 2.597226865263501
19.1583194042095 28.473226865263506 14.3197731347365
5.064680595790506 8.9137731347365 20.8643194042095
16.5347731347365 21.7173194042095 9.858226865263497
14.307226865263495 0.9262268652634944 28.1592268652635
29.0283194042095 0.24577313473650086 27.0277731347365
22.891226865263498 24.578319404209502 8.880226865263502
24.5307731347365 18.6327731347365 17.5917731347365
18.065226865263504 28.616226865263506 26.612134326317516
14.0867731347365 26.7197731347365 8.366773134736501
7.508226865263502 21.4937731347365 3.870226865263497
11.465680595790502 17.7218656736825 7.552134326317514
18.476226865263506 22.458226865263505 11.5807731347365
3.039226865263501 7.8747731347365 4.552226865263499
5.5907731347365 28.291226865263503 5.4967731347365
24.721226865263496 2.9807731347365003 24.8193194042095
25.622319404209502 0.5492268652634991 9.495773134736499
1.8797731347364994 3.5112268652635024 24.084319404209502
5.180226865263499 2.5122268652635 11.325226865263495
26.5377731347365 20.669773134736502 30.205226865263505
26.039226865263494 27.0803194042095 0.8352268652635004
1.6247731347365004 23.744865673682497 19.908226865263494
17.9897731347365 23.592226865263505 16.5657731347365
28.9453194042095 11.481226865263501 25.961226865263505
1.828773134736501 5.924226865263499 6.027773134736501
1.7376805957904935 21.108773134736502 12.107773134736501
18.3617731347365 26.9692268652635 1.0897731347365003
16.866588056844506 27.0347731347365 10.930134326317514
17.116319404209502 27.803773134736502 7.306773134736501
20.3247731347365 26.6493194042095 24.9997731347365
11.757226865263497 15.4227731347365 1.6992268652635047
18.0247731347365 19.6952268652635 18.2192268652635
11.926226865263494 30.1593194042095 22.4842268652635
11.4082268652635 29.1947731347365 25.249226865263502
29.264865673682507 29.3417731347365 9.098319404209501
16.8057731347365 20.5633194042095 8.959226865263496
0.22177313473649996 30.0897731347365 9.423226865263501
20.5857731347365 15.5957731347365 25.3577731347365
10.788226865263503 30.354226865263506 27.039226865263494
11.313226865263495 2.2062268652634955 4.6797731347365
26.2162268652635 13.4317731347365 13.553680595790496
1.3952268652635027 10.122773134736502 14.857319404209502
29.1717731347365 24.1797731347365 13.123226865263497
9.142773134736501 22.6797731347365 12.8127731347365
19.0942268652635 24.064773134736498 28.3803194042095
3.0122268652635 20.038226865263503 11.580680595790497
18.0757731347365 8.4767731347365 17.1987731347365
11.648773134736501 26.5453194042095 30.416773134736502
5.1666805957904955 26.7557731347365 24.4017731347365
9.0552268652635 19.401226865263503 4.0002268652635
17.9087731347365 18.7397731347365 18.3287731347365
20.9362268652635 22.7932268652635 30.3867731347365
11.932226865263495 31.741773134736498 17.542226865263494
23.8553194042095 16.3407731347365 7.4817731347365
2.009680595790499 6.994226865263499 2.765588056844507
8.7107731347365 3.428680595790496 9.785680595790495
29.0437731347365 30.5663194042095 21.5467731347365
6.1113194042095 30.2227731347365 10.3867731347365
23.3073194042095 31.6843194042095 10.737226865263501
8.0077731347365 20.783226865263494 5.4677731347365
17.8913194042095 28.1797731347365 26.0397731347365
11.613319404209502 22.837226865263496 28.116226865263506
31.940226865263504 4.509680595790499 23.560226865263495
5.960319404209503 5.233680595790503 9.5977731347365
22.503773134736498 1.3516805957904978 23.2697731347365
7.836226865263498 17.79813432631751 20.624865673682507
31.9157731347365 30.330226865263505 5.657226865263503
21.363226865263506 25.4157731347365 9.7192268652635
1.4666805957904927 24.789226865263494 19.613226865263506
5.8857731347365 16.8193194042095 4.553773134736501
12.2657731347365 32.062226865263504 16.630226865263502
4.976680595790498 21.5312268652635 5.4872268652635015
0.06822686526350452 4.7372268652635015 22.514319404209502
27.866319404209502 4.872680595790499 11.005319404209498
16.283226865263494 8.721680595790502 6.794226865263504
6.9267731347365 18.6952268652635 0.5982268652634986
12.434773134736501 16.218226865263496 8.157226865263503
31.485319404209502 7.644226865263498 2.0752268652634953
19.6093194042095 28.8477731347365 25.5637731347365
18.6067731347365 28.8287731347365 31.0947731347365
2.0397731347364996 28.7493194042095 31.628773134736498
6.937226865263504 18.7102268652635 1.8392268652634982
26.1003194042095 13.3842268652635 25.913226865263503
16.4086805957905 8.801226865263494 25.5552268652635
3.353226865263501 13.3782268652635 28.6217731347365
6.555226865263499 30.732226865263506 27.7173194042095
0.47477313473650007 15.767773134736501 11.619680595790499
14.831773134736501 28.1717731347365 3.1753194042094997
2.104680595790498 4.614680595790503 1.1883194042094978
6.873226865263497 14.5027731347365 13.664226865263501
9.852226865263496 9.435226865263495 12.6757731347365
20.184226865263504 22.0197731347365 17.0107731347365
28.0687731347365 3.6362268652635024 5.879773134736499
23.1357731347365 16.4737731347365 7.141226865263498
0.546226865263499 11.9727731347365 28.288773134736502
25.757226865263497 30.2872268652635 21.431226865263504
11.869680595790499 2.8007731347365006 4.9137731347365
23.2727731347365 7.6126805957904935 31.676226865263494
21.718226865263496 21.6597731347365 1.9771343263175112
15.2072268652635 9.014226865263502 17.7372268652635
19.869226865263506 6.2642268652635025 25.663773134736502
7.575226865263495 23.8227731347365 11.7857731347365
6.9676805957904975 23.5737731347365 9.9077731347365
31.2953194042095 15.1443194042095 7.2516805957905035
7.2102268652635 3.8792268652634974 20.574226865263505
16.2992268652635 14.6437731347365 18.294773134736502
3.1092268652635013 5.8597731347365 2.9162268652635035
28.161226865263494 27.874226865263502 27.4782268652635
17.354680595790498 14.2987731347365 1.3082268652634994
16.255226865263502 26.6173194042095 11.024773134736499
21.852773134736502 31.7902268652635 26.765226865263493
25.4717731347365 25.988226865263506 29.4087731347365
24.059226865263504 16.4302268652635 15.0517731347365
11.044226865263504 22.736773134736502 26.849226865263496
10.539226865263501 12.556134326317505 21.327680595790497
11.325226865263495 32.0917731347365 28.1323194042095
18.662134326317513 26.9063194042095 15.1787731347365
22.0717731347365 27.1763194042095 14.941226865263495
13.057319404209498 0.4666805957904927 28.430319404209502
3.4283194042094998 18.5027731347365 17.0057731347365
31.741134326317507 0.21622686526350066 8.026319404209499
4.909319404209501 29.182226865263495 7.2447731347365
9.063226865263495 29.4007731347365 10.523773134736501
13.297226865263504 21.0593194042095 23.611773134736502
16.811680595790506 16.5167731347365 0.9086805957905
3.0402268652634987 4.1932268652635045 23.622319404209502
19.152226865263493 17.3827731347365 24.889226865263502
31.090226865263496 10.327226865263505 17.577226865263505
32.0293194042095 24.75568059579051 3.9197731347365004
8.1892268652635 6.2607731347365 3.6262268652634972
26.3883194042095 31.5163194042095 14.420226865263501
11.6187731347365 31.125319404209502 25.8967731347365
5.146319404209503 30.5403194042095 27.306865673682495
1.5232268652635028 10.7742268652635 31.605773134736502
1.4982268652634971 13.9057731347365 6.123134326317512
13.7167731347365 29.5123194042095 21.7117731347365
29.8597731347365 20.4123194042095 5.178134326317505
19.516226865263498 6.9476805957905015 19.6062268652635
5.6402268652635 18.539226865263494 19.6277731347365
1.5102268652634976 12.564680595790506 30.0453194042095
5.449319404209501 19.6407731347365 1.4807731347365003
8.8292268652635 5.7627731347365 1.3486805957904977
6.589226865263498 15.060226865263495 11.260226865263498
4.6323194042095 1.4472268652634952 16.978680595790507
9.0687731347365 4.547226865263504 2.6332268652635022
30.244319404209502 24.676226865263494 20.6877731347365
8.744773134736501 14.2222268652635 12.3717731347365
1.2726805957905043 4.3172268652635 4.055226865263499
19.113226865263506 11.588773134736499 30.241226865263506
13.022226865263498 28.4417731347365 3.785319404209499
18.5763194042095 20.3177731347365 9.710680595790492
12.050226865263504 21.669773134736502 26.5283194042095
27.9302268652635 10.622680595790499 17.256226865263493
7.0187731347365006 7.8892268652635025 13.6227731347365
26.253319404209503 31.148226865263503 3.315134326317505
26.092134326317506 30.2368656736825 19.5957731347365
28.9557731347365 19.192773134736502 16.631226865263493
1.9597731347364995 4.220226865263498 5.476226865263499
15.1892268652635 27.286226865263494 2.783226865263501
27.680773134736498 2.451680595790492 3.211226865263498
9.910226865263503 24.574226865263505 18.3197731347365
12.254680595790504 24.6892268652635 27.089226865263505
17.5267731347365 19.7453194042095 8.867680595790503
19.262226865263493 20.6907731347365 23.5977731347365
30.398319404209502 29.147226865263498 9.3752268652635
23.432226865263495 23.167226865263494 22.3453194042095
2.4927731347365008 6.158773134736501 5.549680595790505
10.949226865263505 29.8442268652635 0.23877313473649941
17.815226865263504 2.0122268652635 14.511319404209498
20.139226865263502 1.3137731347365005 10.985773134736501
12.5547731347365 26.5552268652635 2.4207731347365
16.851226865263506 13.696226865263505 16.7537731347365
27.3657731347365 15.1706805957905 23.354226865263506
25.9297731347365 8.6707731347365 8.062226865263504
18.6917731347365 7.511773134736501 4.3017731347365
11.506680595790499 30.140226865263493 24.385865673682503
26.2593194042095 26.2967731347365 16.446680595790497
5.130226865263502 27.5807731347365 14.655319404209504
25.101226865263506 6.1666805957904955 18.038773134736502
6.4357731347365 19.1227731347365 1.2897731347364996
0.9636805957904926 0.7966805957905052 9.852226865263496
4.6667731347365 26.864773134736502 6.840226865263496
10.742680595790503 17.976226865263506 6.3877731347365
13.7137731347365 27.9657731347365 8.620226865263497
25.1127731347365 18.4497731347365 7.5092268652635
23.7757731347365 15.461319404209501 7.049680595790505
32.1313194042095 15.567319404209503 13.3962268652635
20.111773134736502 1.7946805957904957 14.2667731347365
29.081226865263496 16.8897731347365 15.413226865263503
13.1402268652635 8.020680595790495 16.2627731347365
