29.8977731347365 3.5476805957904958 0.9736805957904977
10.011680595790494 17.7317731347365 16.5483194042095
7.148226865263503 23.4893194042095 11.607226865263499
8.282226865263503 29.6673194042095 22.1622268652635
9.046226865263499 28.9417731347365 4.544226865263504
4.831680595790502 19.4797731347365 23.6777731347365
3.7542268652634974 6.0702268652635 12.1312268652635
30.123773134736503 1.9477731347365008 19.9237731347365
21.0967731347365 15.359680595790493 27.3957731347365
6.6287731347365 29.6467731347365 6.825226865263495
7.248773134736501 6.371226865263502 13.4177731347365
19.3777731347365 10.7207731347365 3.1647731347364996
12.097319404209504 15.122319404209502 16.732680595790498
27.5937731347365 15.666226865263503 6.9657731347365
10.152319404209504 1.7257731347364995 9.843226865263496
9.619680595790499 27.747773134736498 2.9562268652634955
14.4317731347365 17.26768059579051 1.526226865263503
29.510865673682503 17.5827731347365 3.3467731347365
22.717226865263505 2.5146805957904945 2.556773134736501
13.9427731347365 18.729226865263506 15.373773134736501
4.636773134736501 25.648226865263503 5.240680595790494
9.211226865263498 26.107680595790498 4.9206805957905
16.379680595790504 27.2407731347365 30.8297731347365
19.6447731347365 29.5797731347365 1.3197731347365007
14.8782268652635 11.293680595790505 10.5167731347365
4.891680595790504 1.8102268652634947 15.926226865263494
4.428226865263504 5.4023194042095035 9.4193194042095
7.0822268652635 20.5437731347365 9.8442268652635
0.937773134736501 24.4602268652635 6.101773134736501
6.583226865263498 7.202319404209501 1.4602268652635004
14.305680595790506 6.180226865263499 9.090319404209499
21.3232268652635 16.4087731347365 27.5893194042095
10.0227731347365 24.895226865263503 9.088773134736499
0.3947731347365 0.8037731347365007 28.9427731347365
5.1667731347365 11.150319404209501 9.681773134736499
22.1853194042095 7.902773134736501 25.3297731347365
12.6432268652635 30.1443194042095 16.301226865263494
22.509226865263493 0.14468059579050419 30.302319404209502
27.3232268652635 2.011773134736501 19.313226865263495
20.2907731347365 30.042226865263494 4.037226865263499
20.1617731347365 5.742226865263497 15.8827731347365
27.253226865263507 2.4622268652634958 7.001226865263497
31.0663194042095 19.0972268652635 15.173319404209504
9.595226865263498 17.2957731347365 19.2777731347365
15.675226865263504 5.886226865263502 26.9483194042095
13.453773134736501 7.560226865263495 12.0387731347365
4.393680595790499 7.209226865263496 17.346680595790502
4.8232268652635 19.3867731347365 10.735226865263499
21.7217731347365 31.721226865263496 24.5443194042095
9.214226865263498 21.739226865263497 8.599680595790502
6.8842268652635 6.225226865263501 11.943226865263505
9.996226865263502 26.128773134736498 9.4817731347365
9.149773134736499 10.5137731347365 24.1447731347365
27.718319404209502 27.6952268652635 12.150226865263498
23.5527731347365 5.174680595790505 24.0153194042095
26.7787731347365 28.4357731347365 11.1462268652635
9.983226865263497 20.308319404209502 23.379226865263497
14.8022268652635 32.1717731347365 14.029680595790495
29.1797731347365 1.4122268652634986 31.1113194042095
17.2337731347365 10.989226865263497 10.410226865263503
11.623226865263497 7.984680595790493 0.8596805957904934
10.3767731347365 26.250226865263507 4.6252268652635
22.667226865263494 8.0537731347365 18.5993194042095
18.8957731347365 8.8232268652635 4.4917731347364995
8.304226865263495 2.142773134736501 3.9397731347365
23.452226865263505 29.4757731347365 19.8477731347365
16.0822268652635 4.019680595790504 23.4247731347365
10.8397731347365 18.9797731347365 20.399226865263493
10.860319404209502 23.5123194042095 4.563319404209498
20.9113194042095 29.681226865263504 25.4737731347365
2.2842268652634985 1.8632268652634991 26.4097731347365
2.4257731347365006 1.668680595790505 13.861226865263497
6.3322268652635 24.021226865263493 18.651226865263503
15.270773134736501 22.169773134736502 28.4842268652635
25.6977731347365 4.469319404209504 9.205680595790497
4.413226865263503 23.3532268652635 4.895680595790495
27.9267731347365 15.589226865263498 5.434773134736501
4.8457731347365005 23.738319404209502 20.5267731347365
11.688680595790501 24.2837731347365 6.0607731347365
29.147226865263498 24.1477731347365 20.351226865263506
15.4972268652635 2.996680595790494 24.2137731347365
9.041680595790496 22.9697731347365 11.072226865263495
30.1062268652635 23.9647731347365 19.497226865263507
23.0067731347365 6.8627731347365 26.7042268652635
14.935226865263495 9.2472268652635 10.8417731347365
23.032226865263503 2.088773134736501 2.202680595790497
17.3457731347365 21.6647731347365 30.696865673682495
29.9113194042095 23.3377731347365 10.776226865263503
28.6293194042095 5.758226865263502 21.1652268652635
12.6337731347365 18.504226865263497 30.3123194042095
20.4327731347365 12.6922268652635 25.1037731347365
5.271773134736501 31.2257731347365 32.104773134736504
28.995226865263497 26.9007731347365 19.735680595790498
3.7592268652635 10.584226865263496 10.107226865263499
1.5892268652634982 0.15668059579050464 0.9176805957905003
11.3217731347365 15.1317731347365 1.127226865263502
2.3226805957905015 30.278865673682503 27.553773134736502
13.8187731347365 4.805226865263499 20.529226865263503
19.024226865263493 18.0137731347365 7.698319404209503
31.7843194042095 30.7783194042095 2.3862268652635024
6.168226865263499 6.3237731347365 8.9407731347365
28.5513194042095 4.483680595790503 7.3597731347365
19.300226865263504 30.483773134736502 21.0737731347365
23.130226865263502 18.1777731347365 20.2517731347365
12.879226865263497 2.722226865263501 26.5642268652635
9.999226865263502 18.901226865263503 1.893134326317508
12.200773134736501 19.891865673682503 16.1937731347365
10.3967731347365 12.5507731347365 4.281226865263498
12.9557731347365 31.6617731347365 13.898226865263503
12.4167731347365 10.7472268652635 10.391226865263498
9.7412268652635 14.281226865263498 11.343319404209499
9.181773134736499 17.703226865263495 0.9906805957904936
30.4437731347365 16.7477731347365 15.5347731347365
1.2117731347365002 15.8327731347365 23.3667731347365
16.4392268652635 19.8442268652635 29.131226865263493
13.968680595790502 18.0792268652635 0.4456805957905061
27.0817731347365 27.416226865263503 13.2607731347365
24.6767731347365 6.031680595790505 9.581680595790502
5.864226865263497 25.6982268652635 7.046226865263499
4.821226865263505 20.303226865263504 6.540226865263499
32.1333194042095 1.0586805957905057 21.0402268652635
11.526319404209499 0.5091343263175077 23.9483194042095
12.250680595790499 15.976226865263506 3.0496805957905053
19.6817731347365 29.919226865263504 1.9503194042094982
14.485226865263499 29.1983194042095 17.384226865263493
19.6117731347365 2.519226865263498 15.669226865263504
23.8987731347365 5.1862268652634995 8.223680595790498
29.9857731347365 6.6932268652635045 11.3447731347365
23.3137731347365 6.457680595790492 31.7403194042095
1.0986805957904977 30.2342268652635 25.1437731347365
11.450773134736501 17.852773134736502 2.5937731347365
4.959226865263496 27.8187731347365 20.904226865263503
4.634680595790499 8.9632268652635 0.04322686526349884
9.180773134736501 25.8797731347365 20.396226865263493
6.5617731347365 7.449226865263505 24.572226865263495
31.0057731347365 3.0642268652634996 16.634773134736502
23.081226865263496 18.4117731347365 21.801226865263494
19.2727731347365 4.703680595790502 19.6447731347365
13.675226865263504 27.105226865263496 13.145680595790495
13.345680595790498 15.615226865263502 16.7297731347365
26.965226865263496 19.9547731347365 2.427226865263499
30.1403194042095 5.3782268652635 18.733680595790503
17.483226865263497 11.724680595790502 10.971226865263496
28.9743194042095 14.8937731347365 7.023680595790495
16.320773134736502 11.278680595790505 22.0867731347365
7.619226865263499 21.833226865263505 3.8686805957904937
32.1412268652635 31.292226865263494 30.569226865263495
26.498226865263497 27.3847731347365 22.5747731347365
14.479226865263499 9.5647731347365 10.416226865263503
30.5217731347365 0.6087731347365004 9.761226865263502
0.6267731347365011 12.077226865263505 18.0987731347365
21.1777731347365 17.0552268652635 21.7147731347365
28.1567731347365 1.4362268652634995 19.0462268652635
16.0762268652635 21.556226865263504 31.375773134736498
4.2047731347365005 24.6293194042095 21.861226865263497
16.084226865263496 20.5757731347365 7.517773134736501
29.584226865263496 5.088134326317515 5.991680595790498
19.096226865263496 14.442680595790506 26.5023194042095
12.578773134736501 28.088680595790507 26.2133194042095
19.245226865263497 18.6797731347365 8.141865673682503
0.6702268652635013 16.2607731347365 20.625773134736498
17.443680595790497 18.0487731347365 25.6597731347365
18.6677731347365 2.4022268652635006 8.084680595790502
29.559773134736503 27.8807731347365 11.4787731347365
31.498773134736503 15.309226865263504 5.7592268652635
16.0497731347365 9.662680595790505 17.928226865263504
31.7807731347365 6.294680595790496 20.5967731347365
6.173226865263501 5.089226865263498 9.929226865263495
10.5767731347365 17.766226865263498 21.5582268652635
15.8007731347365 7.868226865263502 19.449226865263505
1.3862268652635024 26.5957731347365 8.089680595790497
18.0917731347365 24.9637731347365 20.639226865263502
13.272226865263498 16.8937731347365 14.578226865263495
1.043680595790505 15.203319404209498 5.6402268652635
11.3022268652635 17.2267731347365 17.6487731347365
9.287226865263499 11.812226865263504 11.6597731347365
14.303226865263504 12.163226865263503 8.5277731347365
14.857773134736501 5.245773134736501 26.9152268652635
31.5157731347365 6.179680595790501 7.6922268652635
16.5937731347365 23.272226865263498 19.4632268652635
29.3237731347365 9.665680595790505 28.602773134736502
18.426226865263494 11.362680595790493 9.947226865263495
19.8472268652635 30.789226865263494 3.0966805957905024
30.988773134736498 0.9562268652634955 21.238226865263506
20.4643194042095 30.0227731347365 25.239226865263497
18.482226865263506 3.9532268652634954 18.0317731347365
7.663319404209499 13.1817731347365 24.7037731347365
9.299773134736501 30.1827731347365 20.9152268652635
16.0492268652635 2.6147731347365006 25.5972268652635
21.272226865263498 22.1427731347365 1.749226865263502
20.882226865263497 16.030226865263494 28.2377731347365
25.0552268652635 31.461865673682496 3.701319404209503
21.4923194042095 17.281680595790505 15.213319404209503
1.9877731347365 0.8586805957905028 30.1747731347365
6.5527731347364995 21.491226865263506 11.552773134736501
13.057226865263495 27.8237731347365 14.6327731347365
4.9237731347365 31.6982268652635 28.4267731347365
15.2192268652635 28.5973194042095 16.714226865263505
21.799680595790505 30.318226865263505 4.7207731347365005
12.7747731347365 31.310226865263495 13.043226865263499
13.360226865263499 10.459226865263496 11.440680595790496
16.1787731347365 7.444226865263495 10.7532268652635
6.238226865263499 31.3963194042095 14.151226865263503
15.0607731347365 11.8202268652635 14.982226865263499
21.0317731347365 4.843226865263496 14.174226865263499
21.0983194042095 31.092226865263505 3.8323194042095032
1.3766805957905035 3.505319404209498 30.567680595790506
6.594773134736501 5.6402268652635 9.3197731347365
31.4123194042095 19.501226865263497 1.5907731347364997
24.997773134736498 14.0302268652635 20.3977731347365
27.748773134736503 25.1357731347365 13.379226865263497
24.9597731347365 15.459319404209499 20.5337731347365
29.577226865263505 14.4557731347365 29.1407731347365
29.3187731347365 4.808226865263499 9.4747731347365
0.7232268652634986 2.7232268652634986 20.187226865263504
4.498226865263497 26.6673194042095 20.970226865263506
17.364680595790503 23.5006805957905 19.1093194042095
19.268226865263493 29.027226865263493 26.5303194042095
19.7777731347365 7.776226865263503 25.0347731347365
30.277226865263493 29.6663194042095 13.7727731347365
20.1933194042095 9.4757731347365 6.270226865263503
14.6657731347365 17.9207731347365 31.9223194042095
4.846680595790502 31.2287731347365 31.6387731347365
14.853680595790493 24.1887731347365 19.8513194042095
3.8382268652635005 21.365680595790508 11.111226865263497
22.3996805957905 12.845226865263498 30.1377731347365
29.3237731347365 18.166773134736502 12.831773134736501
6.803773134736501 25.119773134736498 9.744773134736501
8.8082268652635 9.083226865263498 30.814319404209503
19.6663194042095 16.6157731347365 24.7687731347365
13.6892268652635 26.419773134736502 14.4007731347365
27.4727731347365 15.732773134736501 3.4352268652634947
2.2942268652635036 30.2753194042095 15.3172268652635
31.6113194042095 3.4397731347365 10.0156805957905
2.0586805957905057 2.2092268652634957 0.5992268652634962
6.6927731347365 25.258226865263502 8.680680595790506
30.738773134736498 2.7877731347365007 17.5747731347365
8.017773134736501 8.620680595790503 9.7772268652635
25.212226865263496 6.794680595790496 24.791226865263503
2.0202268652635027 4.547226865263504 31.7527731347365
7.792226865263501 3.2122268652634958 5.207680595790492
11.971226865263496 25.274226865263493 12.3727731347365
16.4182268652635 10.857773134736501 15.152773134736501
22.672773134736502 30.989226865263497 24.997773134736498
14.3157731347365 18.2157731347365 15.3947731347365
20.5732268652635 15.174226865263499 16.465319404209502
8.9357731347365 4.309226865263504 18.583226865263505
31.1947731347365 5.038226865263503 7.529226865263503
11.0272268652635 21.4413194042095 18.1067731347365
16.244226865263506 10.791680595790496 14.043773134736501
24.535226865263503 13.331226865263496 10.7987731347365
6.010226865263498 4.595680595790498 30.7327731347365
30.2883194042095 2.9907731347365 7.042226865263501
4.1567731347365005 16.8532268652635 23.627226865263502
12.2947731347365 31.5343194042095 13.8322268652635
22.929226865263495 19.185226865263495 10.212226865263496
28.4662268652635 20.0397731347365 2.4947731347364996
4.352226865263496 18.6107731347365 8.557226865263495
18.2807731347365 9.002226865263502 20.5897731347365
12.363773134736501 0.8632268652634991 23.798226865263494
16.6122268652635 8.8187731347365 21.360226865263506
9.249226865263502 23.867226865263497 3.3326805957904924
25.539226865263494 6.474226865263496 26.560226865263495
9.1982268652635 15.3412268652635 32.1483194042095
22.003319404209503 30.3377731347365 18.559226865263504
26.6622268652635 7.6737731347365 9.4082268652635
12.122680595790499 13.5297731347365 3.1455880568445025
11.9817731347365 1.1292268652634974 31.4447731347365
31.830226865263505 14.2537731347365 7.808226865263499
19.4182268652635 23.6617731347365 22.0153194042095
6.200226865263495 9.3232268652635 9.3037731347365
11.7012268652635 20.4557731347365 16.8352268652635
6.0487731347365 29.0283194042095 20.6677731347365
22.7617731347365 1.3797731347364994 2.931680595790496
6.5797731347365005 8.8437731347365 17.940680595790496
23.196226865263505 19.6267731347365 3.214226865263498
12.242226865263497 20.9127731347365 15.2757731347365
23.1763194042095 20.1047731347365 8.4482268652635
28.299865673682504 25.0257731347365 10.990319404209497
21.1627731347365 24.4507731347365 13.130226865263502
2.228680595790493 16.2057731347365 29.879226865263497
19.7087731347365 31.4233194042095 20.3637731347365
14.4087731347365 1.661226865263501 29.0653194042095
21.045226865263494 28.690773134736503 1.3697731347364996
15.6367731347365 19.0937731347365 1.655773134736501
4.538680595790495 1.3686805957904937 26.242226865263497
22.5347731347365 6.927226865263499 15.889226865263502
7.847226865263501 28.3237731347365 19.023226865263503
7.377680595790494 13.2347731347365 11.088773134736499
5.7047731347365005 21.9377731347365 6.8277731347365
27.9773194042095 22.982226865263506 18.3077731347365
12.8842268652635 10.8747731347365 30.4657731347365
8.095226865263498 10.6162268652635 30.4557731347365
12.002319404209498 4.568680595790497 30.5887731347365
4.743226865263502 9.943226865263505 31.870773134736503
11.081773134736501 21.702226865263505 22.925773134736502
1.7222268652635009 1.6132268652634991 2.959680595790502
16.9332268652635 7.118226865263502 8.933773134736501
7.7097731347364995 9.1263194042095 9.6977731347365
31.673226865263494 2.2886805957904954 19.642226865263503
8.7102268652635 12.575773134736501 12.4392268652635
18.0437731347365 23.3977731347365 21.956319404209502
22.235226865263506 14.7947731347365 16.505226865263502
22.0707731347365 15.9807731347365 14.857773134736501
7.484680595790493 20.2017731347365 7.914226865263501
12.934773134736501 1.1422268652635026 31.050773134736502
7.024773134736501 7.5672268652635 12.094319404209504
31.122773134736498 14.087226865263496 6.446680595790497
4.825773134736501 17.4067731347365 9.975226865263501
12.5582268652635 15.157226865263503 15.923226865263494
15.725226865263501 8.690226865263504 9.239680595790503
26.884134326317508 27.655226865263494 14.028226865263498
11.5257731347365 3.2132268652635005 29.5757731347365
2.373226865263497 29.8167731347365 31.4217731347365
21.7173194042095 9.113773134736501 4.8177731347365
28.5247731347365 7.5726805957905015 10.937680595790496
25.1487731347365 7.162226865263499 27.0413194042095
10.129226865263497 18.7577731347365 0.1506805957905044
17.4242268652635 9.674226865263499 12.5047731347365
12.331226865263496 29.747773134736498 15.449226865263505
9.549226865263499 16.7647731347365 1.7952268652635013
11.252226865263502 20.2357731347365 20.882226865263497
1.1767731347365 31.774226865263493 30.2812268652635
14.6492268652635 11.7017731347365 8.946226865263505
3.7221343263175157 23.544773134736502 7.402226865263501
4.881319404209503 20.9127731347365 29.508226865263502
0.09222686526349833 0.3252268652634953 18.7867731347365
4.412680595790505 25.1643194042095 16.8167731347365
11.1577731347365 19.044773134736502 30.8397731347365
3.0027731347365005 0.4362268652634995 15.238773134736501
5.9277731347364995 8.413680595790495 18.4047731347365
12.549226865263499 5.481680595790493 27.2233194042095
21.6197731347365 0.276680595790495 1.3867731347365009
17.9227731347365 10.306226865263504 19.4387731347365
13.719680595790493 1.2216805957905024 23.9817731347365
16.2273194042095 23.367226865263497 19.0877731347365
18.8877731347365 11.675226865263504 20.0707731347365
18.9157731347365 9.2562268652635 11.668773134736501
12.6517731347365 0.2942268652635036 7.733226865263497
6.202226865263505 19.000226865263507 9.5717731347365
11.828226865263495 21.940226865263504 17.8097731347365
3.8752268652634996 31.5327731347365 25.6537731347365
13.5186805957905 25.105773134736502 5.752226865263502
27.7297731347365 18.4187731347365 12.734319404209504
22.9647731347365 30.5577731347365 31.1843194042095
23.9056805957905 12.0987731347365 28.1597731347365
22.3017731347365 30.809773134736503 30.809226865263504
8.2192268652635 9.742773134736499 31.753773134736498
27.009226865263493 14.6967731347365 20.2847731347365
29.3427731347365 2.8983194042094986 9.208680595790497
17.383226865263502 26.071226865263505 27.116319404209502
15.864226865263497 12.159680595790505 29.2896805957905
10.6287731347365 26.1652268652635 7.9166805957904955
3.2506805957904987 20.1967731347365 9.1892268652635
20.119319404209502 24.029226865263503 14.9313194042095
21.4427731347365 0.7222268652635009 0.45577313473649994
16.483226865263497 25.8547731347365 27.532865673682508
21.0342268652635 10.1887731347365 4.3232268652635
12.598226865263499 1.1622268652634986 24.8457731347365
18.687226865263504 17.3827731347365 7.8787731347365
7.807226865263495 22.230226865263496 11.5417731347365
0.5272268652635006 10.413226865263503 24.605226865263496
15.849226865263496 16.2377731347365 31.7573194042095
22.241319404209502 9.5732268652635 5.202680595790497
23.4827731347365 5.684773134736501 28.125773134736498
12.7382268652635 26.8387731347365 25.6783194042095
11.989226865263497 1.482226865263499 32.0223194042095
30.8307731347365 4.581773134736501 20.7777731347365
11.910226865263503 21.3397731347365 17.8747731347365
5.595680595790498 22.6107731347365 4.5317731347365005
22.7817731347365 7.347773134736499 31.872773134736498
23.081226865263496 8.0137731347365 23.5727731347365
3.1522268652635006 22.8247731347365 6.572226865263495
5.341773134736501 5.335773134736501 9.549226865263499
10.850226865263501 3.1632268652635034 31.968226865263496
15.4747731347365 3.1372268652635 5.428680595790496
31.0157731347365 26.4707731347365 13.828773134736501
7.5092268652635 26.0887731347365 6.328773134736501
8.6377731347365 26.782319404209503 22.351680595790498
11.310226865263495 15.029680595790495 16.3993194042095
29.712226865263496 1.6482268652635028 10.549773134736501
7.127680595790494 26.7953194042095 1.836226865263498
6.866680595790498 24.362865673682506 20.342226865263505
30.3076805957905 0.2743194042095034 7.676319404209497
29.2094119431555 7.529134326317504 18.421134326317514
15.2727731347365 28.8443194042095 14.8782268652635
5.987319404209504 22.280226865263494 20.2372268652635
13.459680595790502 20.800680595790496 32.0132268652635
10.751226865263497 18.2737731347365 21.136226865263502
11.959226865263496 24.486773134736502 7.5897731347365
26.2107731347365 4.269226865263498 9.8107731347365
23.0732268652635 28.9833194042095 19.4967731347365
27.6487731347365 25.2107731347365 5.5637731347365005
3.6112268652634967 4.2916805957904955 11.5257731347365
26.6463194042095 26.0762268652635 18.3583194042095
4.4542268652635 22.3713194042095 19.9887731347365
7.5967731347365 24.437226865263504 19.9632268652635
29.0312268652635 3.2656805957904993 25.513226865263498
29.3453194042095 2.5176805957904946 8.7472268652635
30.9707731347365 15.6947731347365 6.931773134736501
18.010680595790504 17.706226865263496 19.7467731347365
21.9183194042095 18.2697731347365 8.249226865263502
4.911226865263501 25.2357731347365 18.358773134736502
26.7707731347365 16.5457731347365 19.5907731347365
2.9727731347364994 2.3307731347365 14.190226865263504
24.637226865263493 5.566226865263495 8.4167731347365
29.4577731347365 26.272226865263498 12.3752268652635
30.146226865263493 1.5702268652634999 31.6677731347365
20.399226865263493 4.995773134736501 15.470226865263498
17.877226865263502 9.333680595790497 18.9507731347365
6.549773134736501 19.7527731347365 8.6417731347365
27.4477731347365 5.8812268652635 12.208226865263498
24.5167731347365 31.2313194042095 17.8927731347365
16.9017731347365 25.157226865263503 5.2132268652635005
19.6957731347365 18.3532268652635 7.0777731347365
27.1457731347365 17.931226865263504 2.4462268652635046
31.2812268652635 19.096680595790502 12.008319404209498
31.1557731347365 4.270680595790495 9.099226865263496
11.798319404209504 1.1486805957904949 27.4203194042095
14.936319404209502 26.003319404209503 12.958226865263498
3.6537731347365003 8.3412268652635 1.2142268652634982
30.6652268652635 5.706680595790502 7.527226865263501
20.426226865263494 10.3547731347365 3.7447731347364996
3.131680595790499 30.1987731347365 30.727226865263496
24.676226865263494 6.6667731347365 7.860680595790498
0.8402268652634959 1.3047731347365001 29.9217731347365
26.760226865263498 15.715226865263496 7.0717731347365
5.4452268652635 26.2967731347365 20.9457731347365
23.4857731347365 17.360226865263506 17.5697731347365
23.926226865263494 21.6263194042095 0.921773134736501
28.8993194042095 20.6427731347365 14.792226865263501
6.271773134736501 25.7042268652635 7.575680595790502
29.043680595790505 15.083134326317506 23.079865673682505
4.863226865263499 32.0822268652635 26.7207731347365
16.5207731347365 23.5822268652635 4.5642268652635
23.4782268652635 29.996226865263502 0.8282268652634954
12.9407731347365 1.5522268652634992 23.7962268652635
25.2127731347365 31.9607731347365 1.9622268652634958
7.1222268652634995 9.2442268652635 31.776226865263503
5.2246805957905025 24.086226865263505 10.0852268652635
5.275226865263498 21.8513194042095 10.6057731347365
4.037773134736501 30.0702268652635 29.642319404209502
27.535773134736502 3.4677731347365004 6.218226865263496
29.049319404209502 29.8352268652635 12.931226865263504
15.0877731347365 19.8707731347365 1.3337731347365
21.108588056844496 19.9677731347365 6.272588056844484
15.4137731347365 28.5317731347365 10.182226865263495
22.6122268652635 13.970680595790498 29.767319404209502
4.9117731347364995 23.8217731347365 3.5336805957905
21.474773134736502 31.5837731347365 3.725226865263501
16.763226865263498 11.270226865263503 11.641226865263498
27.863226865263506 18.0697731347365 5.325226865263495
9.111226865263497 25.8627731347365 19.206226865263496
20.003226865263507 30.8377731347365 19.6577731347365
3.2047731347365005 22.0312268652635 10.989226865263497
13.6517731347365 10.1222268652635 11.9087731347365
3.6052268652634964 9.3847731347365 17.8443194042095
14.1097731347365 28.3877731347365 12.370680595790503
28.0243194042095 8.476226865263499 28.9963194042095
3.6313194042095027 31.6563194042095 27.4877731347365
9.231680595790493 22.8347731347365 6.977226865263496
4.801226865263494 0.9886805957904983 1.8262268652635
14.237680595790493 9.2607731347365 10.1147731347365
16.064680595790506 13.078773134736501 27.498773134736503
30.055773134736498 21.419773134736502 20.0437731347365
28.866773134736498 25.143226865263493 12.648226865263503
12.715226865263496 24.4847731347365 5.601773134736501
19.871226865263502 1.982226865263499 31.874865673682507
13.0517731347365 7.2757731347365 11.106680595790493
29.0877731347365 1.435680595790501 20.4417731347365
23.462226865263496 7.6906805957904965 0.5256805957905044
31.8257731347365 8.284226865263498 28.9857731347365
8.7132268652635 9.611134326317512 25.061319404209502
17.6427731347365 29.952226865263505 12.165226865263499
14.4617731347365 0.45622686526349554 6.4557731347365
11.705226865263505 1.5906805957905021 27.5343194042095
8.3992268652635 25.771226865263493 3.049226865263499
17.246680595790508 8.8752268652635 9.879226865263497
3.6862268652634995 22.6587731347365 3.401226865263503
26.0277731347365 11.710680595790492 10.589226865263498
23.751226865263497 31.7807731347365 17.757680595790504
19.6287731347365 31.5247731347365 2.8722268652634995
1.2652268652635001 18.703226865263495 21.9117731347365
5.868680595790494 18.1207731347365 9.032226865263503
15.5792268652635 11.3097731347365 9.4632268652635
5.8382268652635005 10.2532268652635 30.4847731347365
2.2412268652634992 2.0006805957904987 30.6997731347365
28.413773134736502 1.631680595790499 19.4827731347365
10.448680595790506 12.3707731347365 11.640319404209503
27.7757731347365 27.679226865263495 21.3837731347365
19.1187731347365 16.9452268652635 7.462319404209499
20.950319404209502 7.0357731347365 25.7177731347365
2.4793194042095017 24.756865673682498 19.5576805957905
3.9692268652635008 26.3867731347365 20.394680595790504
20.809226865263504 13.7687731347365 16.2273194042095
3.9936805957904937 2.1096805957904934 26.256226865263493
6.8027731347364995 5.2102268652635 12.5942268652635
26.501773134736503 25.1047731347365 17.8108656736825
5.739680595790503 6.852226865263496 14.3367731347365
13.017773134736501 17.9452268652635 3.9446805957905013
21.4377731347365 7.037226865263499 31.977226865263496
8.119319404209502 25.721226865263496 19.077680595790497
20.9677731347365 18.6387731347365 6.925773134736501
14.226680595790498 28.2937731347365 17.420226865263494
19.9062268652635 13.200773134736501 25.2873194042095
20.6427731347365 23.0817731347365 13.316319404209498
9.2577731347365 15.4487731347365 1.4632268652635005
9.590226865263496 18.437226865263504 2.5227731347365
15.7577731347365 8.0527731347365 10.7047731347365
10.332680595790492 14.1327731347365 10.9407731347365
21.116319404209502 21.7782268652635 4.793773134736501
14.1677731347365 2.074680595790497 30.358226865263497
20.7357731347365 15.520680595790495 16.321226865263505
3.7072268652635003 28.1487731347365 20.652226865263493
25.8943194042095 5.655773134736501 11.661226865263501
28.6723194042095 24.599773134736502 20.938226865263495
23.0817731347365 1.4976805957904986 2.492226865263497
32.1337731347365 18.6197731347365 3.793680595790505
22.3673194042095 19.7147731347365 2.8917731347365
29.4392268652635 2.3058656736825043 1.7367731347365005
8.651773134736501 16.6477731347365 4.0067731347365
27.5197731347365 4.431226865263504 12.0486805957905
30.0552268652635 30.3137731347365 12.7222268652635
12.282226865263503 14.3117731347365 2.8681343263175023
12.109226865263501 2.4666805957904927 27.7407731347365
16.515226865263493 25.158226865263494 18.9367731347365
16.0577731347365 22.499226865263502 20.532319404209503
6.9512268652635 13.3997731347365 12.2047731347365
23.3987731347365 0.40668059579050464 30.0603194042095
28.3833194042095 2.2242268652634962 11.624319404209498
0.2781343263175131 5.686680595790506 23.0533194042095
10.809226865263504 15.4557731347365 1.3852268652634976
22.261226865263502 8.2277731347365 0.881680595790499
30.4813194042095 26.300773134736502 11.217226865263498
13.947226865263495 8.623680595790503 18.2077731347365
7.6637731347365 23.336226865263505 8.629226865263497
29.6363194042095 6.342226865263498 22.869226865263506
29.676226865263494 24.9617731347365 13.5967731347365
28.992773134736503 25.170226865263494 12.0057731347365
13.737226865263501 3.3422268652634983 23.1002268652635
6.984680595790493 20.8277731347365 10.092680595790497
10.943226865263505 18.5577731347365 1.8557731347365003
11.727680595790503 27.0967731347365 16.352226865263496
26.8438656736825 3.6447731347365 7.196680595790497
29.459319404209502 1.8052268652634993 17.5503194042095
9.287226865263499 27.5757731347365 4.9306805957905055
28.4387731347365 27.678226865263504 9.909226865263498
2.9362268652634995 30.191226865263495 1.6142268652634968
18.456226865263496 25.5983194042095 21.2077731347365
9.8657731347365 28.044773134736502 5.879226865263497
21.503226865263507 1.1182268652635017 2.1192268652634993
6.218319404209499 21.349226865263496 4.824680595790497
5.311319404209502 9.492773134736499 10.474226865263496
1.2267731347365007 17.2807731347365 5.580226865263505
19.6413194042095 17.9537731347365 7.606226865263501
30.616319404209502 1.1552268652635007 19.0907731347365
16.0547731347365 22.361226865263497 29.9513194042095
10.8197731347365 2.7287731347364996 27.519226865263498
2.8457731347365005 25.8827731347365 8.522680595790504
11.235773134736501 4.5841343263175105 25.4143194042095
12.2177731347365 3.621680595790494 25.964226865263505
21.2647731347365 5.555226865263499 16.027226865263493
21.0582268652635 23.596319404209503 14.6627731347365
7.8683194042094975 11.31586567368251 24.361226865263497
9.5387731347365 3.465680595790502 5.614773134736501
10.932226865263495 25.7547731347365 4.305226865263499
9.507680595790504 23.0377731347365 8.336226865263498
31.1883194042095 25.1092268652635 12.9022268652635
12.0332268652635 2.8766805957905035 0.6136805957904983
3.3992268652635005 6.456773134736501 9.5017731347365
3.8952268652635027 26.9797731347365 18.4647731347365
15.583226865263498 18.6562268652635 31.872773134736498
5.432226865263495 8.021319404209503 18.5797731347365
5.242680595790503 24.688226865263495 4.538226865263503
30.6233194042095 18.2467731347365 4.7652268652635
28.5127731347365 14.270773134736501 4.984226865263501
12.5017731347365 19.5993194042095 0.8477731347364994
4.816773134736501 18.827226865263505 11.5642268652635
3.4262268652634944 31.270226865263503 29.2842268652635
29.233226865263497 2.712680595790502 6.966773134736501
11.3767731347365 4.3172268652635 26.8417731347365
20.113226865263506 30.7873194042095 25.3187731347365
23.9657731347365 0.17722686526349918 2.5847731347364995
3.327680595790497 16.471226865263496 25.7847731347365
5.7417731347364995 23.326680595790506 8.686680595790506
20.038773134736502 3.8752268652634996 15.7027731347365
15.2412268652635 7.976226865263499 17.1757731347365
16.2037731347365 11.1767731347365 27.6477731347365
5.671773134736501 26.4717731347365 4.9572268652635
14.174773134736501 21.385680595790504 30.7957731347365
22.3103194042095 0.9806805957905027 2.0276805957904998
15.0067731347365 19.3077731347365 10.7857731347365
30.6813194042095 25.0247731347365 13.940226865263504
9.180773134736501 27.8973194042095 6.6526805957905
23.6167731347365 20.9847731347365 5.6783194042095
4.830680595790497 7.840226865263496 1.6562268652634984
6.035226865263503 28.1603194042095 18.9267731347365
21.0093194042095 0.44577313473650015 4.8896805957904945
2.8167731347365006 22.3297731347365 18.3352268652635
17.904226865263503 25.768226865263493 21.7943194042095
4.267226865263503 20.3502268652635 10.813319404209498
10.435226865263495 25.051226865263494 3.516680595790504
30.173226865263494 0.09977313473650007 20.3027731347365
29.4937731347365 21.8727731347365 21.4693194042095
30.673226865263494 1.0672268652634997 17.889226865263502
29.8443194042095 2.597226865263501 30.0757731347365
1.244134326317507 32.0283194042095 31.754865673682502
21.0197731347365 2.546226865263499 1.485773134736501
6.6697731347365 27.7997731347365 8.498226865263497
25.369319404209502 5.306226865263504 10.913680595790495
11.013226865263498 24.0517731347365 6.4947731347365
6.0882268652635005 28.264226865263502 3.6336805957904943
28.254226865263497 11.284226865263498 31.386226865263502
14.279226865263503 31.428226865263504 16.149226865263493
13.415226865263499 28.480773134736502 17.940226865263504
21.2776805957905 13.474226865263496 28.2133194042095
20.2042268652635 5.741226865263499 23.342865673682496
11.892319404209498 3.8992268652635005 26.623773134736503
10.906226865263498 27.537680595790505 5.584226865263496
31.0327731347365 16.834226865263496 4.211680595790497
2.9732268652634986 30.5582268652635 29.9572268652635
30.1092268652635 17.349226865263496 15.6937731347365
10.025226865263498 26.174319404209502 3.014773134736501
2.586226865263498 9.911226865263501 24.7956805957905
21.0877731347365 15.124226865263502 18.7377731347365
29.436773134736498 20.0213194042095 3.374226865263502
8.245226865263497 12.038226865263503 24.2127731347365
2.5826805957904924 7.5812268652634955 3.1476805957905043
6.0152268652635 13.230226865263496 8.9617731347365
10.1847731347365 18.52368059579051 2.0762268652635
14.8087731347365 3.6162268652634992 26.753773134736498
0.00022686526349957603 17.4353194042095 23.1537731347365
4.852226865263496 6.1867731347365 11.592680595790497
28.422226865263504 16.1507731347365 6.822773134736501
29.9577731347365 6.5897731347365 12.111226865263497
20.4177731347365 19.4437731347365 5.951319404209503
2.9737731347365006 1.1487731347364996 15.049773134736501
8.6282268652635 10.179226865263495 11.6327731347365
4.7247731347365 31.3133194042095 14.3527731347365
17.634226865263493 9.983226865263497 19.2347731347365
4.0237731347365 23.5563194042095 19.092226865263505
18.069226865263495 11.723226865263499 14.440226865263504
7.086226865263498 9.219319404209504 17.916773134736502
1.0516805957905007 12.931226865263504 15.091773134736501
20.7923194042095 3.5677731347365 13.857680595790498
17.2697731347365 29.0027731347365 13.0837731347365
16.7817731347365 23.0497731347365 18.6817731347365
11.8322268652635 18.7847731347365 13.435319404209498
19.63068059579051 14.9707731347365 25.2347731347365
16.155226865263494 11.8902268652635 8.7102268652635
8.4767731347365 7.0982268652634986 10.202226865263505
23.1867731347365 4.203226865263495 10.299226865263499
29.348226865263506 25.5807731347365 30.396226865263493
7.1197731347365 28.8627731347365 5.826680595790492
21.6413194042095 23.911226865263494 13.086226865263498
10.3447731347365 15.392226865263503 0.6117731347365005
23.388226865263498 30.275226865263498 19.8677731347365
1.9227731347365005 17.4063194042095 22.236226865263497
21.006226865263493 8.7547731347365 31.673226865263494
14.203226865263495 2.445680595790506 22.9272268652635
4.6807731347365 1.2392268652634968 30.230226865263496
6.398226865263503 28.2767731347365 22.297773134736502
30.5923194042095 5.2072268652635 21.3703194042095
3.5792268652635 25.158226865263494 11.201680595790492
4.4757731347364995 15.537226865263499 21.538773134736502
14.453773134736501 7.350226865263501 25.163226865263503
27.9463194042095 25.289226865263494 5.9967731347365
21.063226865263495 28.8217731347365 16.6297731347365
8.0302268652635 28.0237731347365 22.602226865263496
28.374226865263502 26.373773134736503 10.7977731347365
11.4692268652635 31.700226865263495 26.270319404209502
19.1627731347365 6.616680595790498 18.866319404209502
18.5767731347365 2.5577731347365003 16.6647731347365
28.297226865263504 18.8227731347365 3.2897731347364996
7.955226865263505 23.3687731347365 26.6122268652635
10.9037731347365 1.1732268652635014 28.4997731347365
12.934773134736501 12.383680595790494 27.6647731347365
2.979680595790498 31.251773134736503 2.147134326317513
20.875319404209502 18.9722268652635 8.3906805957905
3.9717731347365 22.286226865263494 5.516226865263498
22.6557731347365 26.4027731347365 28.927319404209502
5.288226865263503 20.9037731347365 18.620680595790503
19.4833194042095 3.3592268652635013 17.0057731347365
12.677680595790505 20.779226865263503 29.8187731347365
8.5417731347365 8.2487731347365 31.0867731347365
22.1062268652635 21.7387731347365 5.175773134736501
16.785773134736502 26.8493194042095 13.668226865263499
24.3733194042095 24.4093194042095 16.997226865263507
11.913226865263503 26.5737731347365 4.643680595790499
15.902773134736501 9.873226865263497 19.161226865263494
8.6927731347365 24.499226865263502 6.879680595790504
12.920226865263501 9.9407731347365 8.854680595790498
3.6387731347364998 0.8277731347364998 31.5287731347365
11.6192268652635 13.3407731347365 3.614226865263497
4.4283194042095 22.7043194042095 17.813226865263495
15.264226865263502 10.774773134736499 14.2102268652635
4.0397731347365 17.465226865263496 10.324226865263505
15.7307731347365 21.792226865263494 30.752226865263502
14.626680595790504 26.0777731347365 12.295226865263501
15.276226865263503 18.672773134736502 10.3017731347365
27.7057731347365 29.3327731347365 20.4583194042095
15.8297731347365 19.1657731347365 0.17368059579050055
9.178680595790496 11.1117731347365 22.6533194042095
18.8173194042095 4.1417731347365 15.610319404209502
24.183319404209502 0.1436805957904994 30.4062268652635
25.985226865263506 6.090680595790502 7.8142268652635
16.0552268652635 3.015319404209503 26.6647731347365
12.108226865263497 18.605773134736502 2.331773134736501
20.4927731347365 15.3217731347365 19.266226865263498
22.6997731347365 14.758680595790494 20.0117731347365
5.172226865263504 0.529226865263503 14.3262268652635
17.2603194042095 12.670226865263501 12.140319404209503
25.2523194042095 28.700226865263495 13.1557731347365
21.047226865263504 29.146226865263493 16.120226865263497
7.1792268652634945 24.907226865263503 8.2827731347365
11.9722268652635 1.2317731347364997 0.9362268652634995
5.107226865263499 26.806773134736503 19.2927731347365
0.290680595790505 1.7216805957905024 29.9272268652635
6.482773134736501 25.1687731347365 7.926226865263494
10.9272268652635 16.160226865263503 15.263680595790504
12.4637731347365 15.636226865263502 14.8447731347365
5.863319404209502 28.2433194042095 20.8727731347365
13.0942268652635 2.931226865263504 0.06422686526349963
27.941226865263495 25.683773134736498 10.9127731347365
11.6947731347365 18.392319404209502 15.7507731347365
3.5702268652635 25.485226865263506 20.851226865263506
4.224226865263496 21.938226865263495 12.123226865263497
29.750226865263507 8.7956805957905 14.9227731347365
3.2567731347365 2.729680595790498 29.1533194042095
5.417226865263501 23.5807731347365 17.2497731347365
27.9493194042095 4.1932268652635045 19.8412268652635
9.723319404209501 25.3927731347365 7.418680595790505
31.0867731347365 4.037226865263499 0.09122686526350066
30.686319404209502 5.333226865263498 23.5917731347365
22.0627731347365 22.6673194042095 14.601226865263499
14.613773134736501 17.5287731347365 17.7347731347365
2.5957731347365005 10.121226865263502 7.498773134736501
14.7442268652635 13.818226865263505 29.492226865263497
30.5167731347365 0.38568059579050384 30.488773134736498
30.327226865263505 15.796773134736501 6.014773134736501
19.124226865263502 22.8543194042095 20.8387731347365
7.1083194042094995 18.2313194042095 10.5182268652635
14.254226865263497 3.2166805957904927 6.876226865263497
4.453226865263495 20.9447731347365 9.668680595790505
15.938226865263495 10.6552268652635 18.8807731347365
0.4267731347365 16.325226865263495 5.121226865263502
22.9577731347365 1.5837731347365 10.668226865263499
24.336680595790497 16.65168059579051 15.985773134736501
18.0437731347365 10.333319404209501 11.8692268652635
28.898226865263503 0.8137731347365005 19.8652268652635
4.3552268652634964 0.8906805957904993 25.566226865263495
29.0787731347365 26.933773134736498 21.4957731347365
4.7577731347364995 5.1937731347364995 11.2087731347365
23.0912268652635 20.9157731347365 8.6522268652635
14.0387731347365 5.267773134736501 25.533226865263494
29.936773134736498 16.876865673682502 4.5637731347365005
16.8112268652635 12.374680595790494 12.942319404209503
23.900226865263498 0.4937731347365002 0.4202268652635013
2.3442268652635008 17.3112268652635 24.526319404209502
5.723773134736501 9.1282268652635 1.0717731347364996
15.272680595790504 28.9587731347365 12.798319404209504
30.8827731347365 21.2743194042095 14.4463194042095
25.154226865263503 17.694226865263495 21.080226865263505
15.4317731347365 5.708226865263498 25.0733194042095
4.100226865263501 26.4452268652635 7.699680595790497
29.7227731347365 23.441226865263495 19.7847731347365
4.909773134736501 23.453319404209502 10.044226865263504
18.644226865263498 11.7652268652635 12.709773134736501
23.4357731347365 7.3766805957905035 15.7107731347365
8.6157731347365 27.5957731347365 21.7687731347365
18.2507731347365 15.395226865263503 18.533226865263494
3.4091343263175133 4.947226865263495 12.3937731347365
10.424680595790505 25.3207731347365 5.562226865263504
10.934226865263504 29.312773134736503 13.194226865263495
1.9546805957904922 28.9493194042095 25.4707731347365
20.288773134736502 10.7917731347365 3.338773134736501
24.2372268652635 13.281226865263498 27.1652268652635
10.276226865263503 10.2042268652635 24.5117731347365
16.0897731347365 27.7603194042095 15.3082268652635
15.766226865263498 20.3877731347365 29.0792268652635
0.17768059579050544 1.3452268652634984 8.160226865263503
14.168226865263499 18.919773134736502 0.7397731347365006
5.2776805957905 22.8807731347365 20.2017731347365
10.4437731347365 28.3003194042095 5.4597731347364995
31.0457731347365 5.222680595790493 19.907226865263503
14.6797731347365 2.776226865263503 22.8483194042095
20.730773134736502 29.970226865263506 20.8047731347365
24.251226865263497 14.4417731347365 26.497226865263507
11.286226865263501 27.0713194042095 13.577226865263505
9.165226865263499 11.2787731347365 22.1517731347365
15.6817731347365 29.814680595790506 11.340226865263496
7.958226865263498 11.159226865263498 23.642226865263503
14.216773134736501 4.9562268652634955 22.3347731347365
23.4497731347365 4.0612268652634995 17.4362268652635
23.1633194042095 31.676226865263494 20.0987731347365
0.21322686526350054 19.0627731347365 12.1402268652635
11.857773134736501 25.7053194042095 4.279226865263503
8.5822268652635 21.4403194042095 7.2337731347365
13.075319404209498 1.8636805957904983 22.812226865263504
28.2923194042095 4.609226865263501 8.352680595790503
3.5707731347365 0.11122686526349668 13.7197731347365
24.769226865263498 1.455226865263505 1.9802268652634964
30.9207731347365 2.7427731347365008 22.6397731347365
28.7837731347365 15.6567731347365 7.424226865263499
4.235226865263499 20.9812268652635 12.575773134736501
12.8817731347365 30.876773134736503 15.735680595790498
19.683680595790506 17.3337731347365 24.8583194042095
3.6827731347365003 22.1067731347365 18.5897731347365
28.164226865263494 20.6032268652635 3.407226865263503
4.444773134736501 27.3947731347365 19.0607731347365
29.200319404209502 18.1567731347365 15.188680595790501
30.4628656736825 4.640680595790499 12.229134326317507
6.165773134736501 25.059226865263504 9.337773134736501
6.967226865263498 27.830226865263505 20.424680595790505
12.4677731347365 28.9003194042095 12.4266805957905
6.591773134736501 10.2072268652635 30.8773194042095
12.839680595790497 11.7896805957905 29.4902268652635
29.7077731347365 9.624226865263502 31.417226865263494
5.0092268652635 29.863226865263506 26.0297731347365
30.974773134736502 2.6217731347365003 11.4362268652635
4.379773134736499 22.965319404209502 20.5057731347365
7.605680595790503 25.3073194042095 19.9476805957905
21.5443194042095 2.0242268652635005 2.925226865263504
26.2006805957905 13.3817731347365 18.3207731347365
16.892226865263503 28.4953194042095 11.9427731347365
22.5642268652635 22.949226865263505 5.7527731347365005
4.435680595790501 2.5272268652635006 27.212680595790502
12.517773134736501 17.7427731347365 31.929226865263495
6.935680595790501 30.2053194042095 15.2667731347365
26.6562268652635 14.600226865263501 23.180319404209502
4.8217731347365 29.4113194042095 21.050226865263504
26.5047731347365 3.530773134736501 10.5732268652635
7.8902268652635 28.6603194042095 5.287226865263499
26.876773134736503 1.968226865263496 21.861773134736502
12.2227731347365 29.0397731347365 15.0547731347365
11.730680595790503 26.303773134736502 7.4657731347365
21.9207731347365 25.312680595790496 27.949226865263505
22.26768059579051 15.6342268652635 15.892319404209498
23.812680595790496 4.359226865263501 9.647226865263498
3.0842268652634957 18.8987731347365 21.2437731347365
2.7077731347365006 7.3817731347365 16.4397731347365
9.0397731347365 29.4663194042095 21.6567731347365
29.0087731347365 6.2682268652635 11.859680595790493
29.7603194042095 16.706226865263496 3.1737731347365
15.670226865263501 20.6473194042095 0.33822686526350054
20.690226865263504 5.386680595790494 14.857773134736501
28.2707731347365 16.6647731347365 7.334319404209499
22.309226865263504 8.174773134736501 32.0647731347365
13.1297731347365 13.293680595790505 3.552226865263499
5.0812268652634955 1.286226865263501 0.6816805957904961
13.4607731347365 2.386773134736501 0.1476805957905043
19.0707731347365 11.440226865263504 3.0867731347365
25.3907731347365 23.155226865263494 19.6273194042095
4.773226865263503 24.389319404209502 17.0702268652635
15.3587731347365 1.7842268652634985 6.525226865263498
14.108226865263497 4.044226865263504 28.8047731347365
7.5002268652635 8.224226865263496 0.23568059579049816
14.946226865263505 1.776226865263503 5.071226865263505
15.4367731347365 14.0852268652635 8.9707731347365
21.111773134736502 31.610226865263506 30.874226865263502
30.0967731347365 18.4627731347365 4.0792268652635
3.9512268652635 31.557226865263495 2.3992268652635005
11.202226865263505 16.4527731347365 30.0603194042095
9.200226865263495 21.552865673682504 11.090680595790502
29.291226865263503 29.336226865263505 10.513680595790504
23.8187731347365 30.9497731347365 1.5162268652634978
13.728226865263501 11.883226865263502 9.6017731347365
1.7267731347365007 23.6237731347365 4.319680595790501
28.3133194042095 2.078773134736501 24.644226865263498
31.6436805957905 23.4242268652635 26.3022268652635
14.9737731347365 11.1697731347365 20.9812268652635
6.2062268652634955 7.232773134736501 14.010226865263498
12.944680595790501 6.1857731347365 11.2532268652635
11.8427731347365 25.9572268652635 6.594680595790493
10.6447731347365 19.976226865263506 15.424773134736501
24.431773134736503 30.5097731347365 5.0682268652635045
29.206319404209502 6.9802268652634964 30.8947731347365
5.3907731347365 27.608773134736502 6.598680595790498
19.7162268652635 8.8687731347365 25.123773134736503
3.2032268652634954 26.033226865263494 16.88068059579051
18.5517731347365 23.889226865263502 21.1737731347365
11.793773134736501 18.5497731347365 14.075226865263495
18.8733194042095 18.355773134736502 6.473773134736501
11.5272268652635 18.084319404209502 1.0452268652635013
21.607226865263506 24.00568059579051 12.1907731347365
7.661226865263501 10.730226865263496 25.121226865263502
8.645226865263503 22.9037731347365 6.699680595790497
27.8437731347365 23.9037731347365 17.2937731347365
27.738773134736498 27.8997731347365 11.337226865263496
23.8817731347365 1.1192268652634993 2.9622268652634958
20.709226865263496 23.7967731347365 7.645226865263503
12.470226865263498 31.574226865263505 11.8687731347365
19.015226865263493 11.948319404209503 20.2173194042095
20.8377731347365 22.622226865263507 14.997319404209502
