11.9417731347365 9.3647731347365 25.1017731347365
17.750226865263507 24.9122268652635 23.4517731347365
1.4132268652635034 1.769226865263498 7.773865673682508
19.9467731347365 3.456773134736501 6.819226865263495
31.4507731347365 11.8877731347365 12.298226865263501
20.134226865263493 17.8033194042095 17.8943194042095
8.7107731347365 18.252226865263502 9.4787731347365
14.781226865263498 17.7167731347365 20.7387731347365
27.2962268652635 13.7427731347365 24.238226865263506
13.8847731347365 18.910773134736502 8.656226865263498
6.7947731347365 25.1943194042095 2.5496805957905053
19.0787731347365 0.15977313473650057 9.966319404209504
3.1586805957905 13.6217731347365 19.8137731347365
22.047680595790496 27.161226865263494 13.7502268652635
5.995773134736501 1.4902268652635016 2.107226865263499
4.3202268652635 21.3317731347365 0.3392268652634982
9.955680595790497 31.2877731347365 10.7987731347365
15.1037731347365 20.8997731347365 19.656680595790505
12.755226865263502 12.485226865263499 13.830680595790497
0.7821343263175038 23.3087731347365 6.506680595790499
11.3447731347365 10.263680595790504 24.125773134736498
2.338773134736501 20.8817731347365 20.9857731347365
21.6307731347365 20.837226865263496 25.6377731347365
13.6922268652635 5.591680595790493 24.7097731347365
1.7307731347365003 3.9577731347365006 20.8457731347365
21.6143194042095 10.8147731347365 8.937226865263504
14.3337731347365 17.822226865263495 22.642319404209502
6.4877731347365 22.3443194042095 8.334773134736501
1.5232268652635028 15.8137731347365 28.328319404209502
2.6922268652634997 16.791226865263503 6.4647731347365
31.0333194042095 13.200319404209498 12.4722268652635
20.2327731347365 1.8986805957904949 21.303773134736502
14.7453194042095 31.0533194042095 28.5343194042095
25.8417731347365 30.177319404209502 8.8082268652635
4.720680595790498 0.5723194042094981 12.668134326317514
25.6437731347365 7.8262268652635 16.1567731347365
2.0482268652635014 19.060226865263495 26.6443194042095
20.0087731347365 7.002680595790494 23.146226865263493
21.6937731347365 4.911226865263501 7.7786805957905045
11.913680595790495 14.392773134736501 13.181680595790496
2.8947731347365 3.6382268652634977 27.8363194042095
19.511226865263502 7.4632268652635005 23.6832268652635
6.796773134736501 27.636226865263502 13.9097731347365
21.852773134736502 21.733773134736502 26.719680595790507
31.0153194042095 9.955680595790497 20.322226865263495
30.2097731347365 13.2712268652635 31.518226865263493
1.9891343263175116 31.622226865263507 10.051319404209497
20.158226865263494 17.2657731347365 0.580226865263505
27.8623194042095 5.630226865263502 11.742226865263497
13.703226865263495 29.253226865263507 2.745773134736501
23.256226865263493 14.106226865263501 23.1547731347365
23.1497731347365 7.008226865263502 23.6706805957905
16.1857731347365 24.883226865263502 11.697226865263495
30.357226865263506 19.169226865263504 2.949680595790497
3.0302268652635007 20.0707731347365 31.104226865263506
27.3867731347365 31.1413194042095 7.457773134736501
0.9912268652634992 29.4247731347365 13.6897731347365
25.6473194042095 2.7442268652634993 14.652773134736501
27.5397731347365 28.163773134736502 29.3537731347365
27.6307731347365 3.603226865263501 23.1327731347365
5.921319404209502 22.3877731347365 26.6723194042095
5.5812268652634955 30.0297731347365 28.245773134736503
20.0107731347365 30.569226865263495 11.5287731347365
26.38368059579051 2.7567731347365 7.8322268652635
12.8767731347365 31.627226865263502 17.8347731347365
3.9192268652635036 29.7013194042095 29.056226865263504
25.8307731347365 29.6802268652635 18.2527731347365
15.7057731347365 27.943226865263505 6.9817731347365
11.634319404209503 25.9692268652635 20.4933194042095
25.6033194042095 6.807680595790501 0.3462268652634961
20.614773134736502 3.937773134736501 5.4517731347365
15.0942268652635 16.956226865263496 16.7687731347365
7.200773134736501 4.630226865263502 9.026226865263503
1.4492268652635047 30.554226865263495 17.757226865263497
18.515226865263493 25.523226865263503 11.325226865263495
22.030226865263494 28.4953194042095 4.197773134736501
5.8262268652635 1.3632268652634991 19.4242268652635
30.7453194042095 20.6177731347365 11.735773134736501
1.1192268652634993 29.6797731347365 17.6207731347365
12.593588056844482 1.7551343263175028 18.401134326317504
8.919226865263504 18.7627731347365 13.2717731347365
3.668226865263499 18.4356805957905 14.348680595790498
17.646226865263493 16.5987731347365 31.4632268652635
23.352226865263496 21.821680595790497 25.9583194042095
17.4727731347365 4.336226865263498 28.8493194042095
29.4517731347365 5.849134326317511 9.797226865263504
25.5247731347365 19.9267731347365 25.1273194042095
5.4026805957905 15.608226865263497 26.3907731347365
4.537680595790505 25.840226865263496 1.7672268652635026
26.875226865263507 27.820680595790506 18.3682268652635
3.7952268652635013 6.745226865263497 22.497226865263507
23.3337731347365 21.5577731347365 25.2817731347365
11.191226865263495 3.370226865263497 16.496226865263502
16.1622268652635 24.0732268652635 1.455226865263505
28.65468059579051 26.5306805957905 21.1037731347365
0.6462268652635004 23.262226865263493 7.908773134736501
3.512680595790499 0.9102268652635033 14.012319404209503
3.154226865263503 29.1523194042095 11.604226865263499
2.2287731347364996 15.212226865263496 8.4037731347365
7.037773134736501 26.024226865263493 22.703226865263495
23.5987731347365 10.656226865263498 12.0547731347365
17.9787731347365 30.4537731347365 9.686773134736502
15.578680595790502 21.330226865263505 31.4923194042095
16.6507731347365 30.843319404209502 9.3747731347365
13.529226865263503 24.5167731347365 9.3447731347365
21.3867731347365 17.413226865263503 17.1783194042095
27.3093194042095 19.041773134736502 1.974134326317511
17.522226865263498 31.1717731347365 7.088773134736501
25.506226865263493 17.8063194042095 4.2527731347365005
24.4573194042095 10.130226865263502 10.1203194042095
20.8047731347365 3.7372268652635015 20.245226865263497
20.0177731347365 17.8622268652635 16.4347731347365
29.969680595790507 14.3297731347365 31.6963194042095
13.7987731347365 11.673226865263501 11.4272268652635
31.5917731347365 18.190226865263504 27.164226865263494
22.3382268652635 20.232226865263506 25.997773134736498
14.3617731347365 4.6453194042094985 7.540773134736501
6.825226865263495 16.3562268652635 31.806773134736503
28.0467731347365 16.9047731347365 21.536226865263494
19.6207731347365 28.0467731347365 17.9447731347365
13.051226865263494 9.575226865263495 30.8558656736825
1.3932268652635003 11.174773134736501 27.524226865263493
29.196226865263505 19.629226865263497 3.139773134736501
25.845226865263506 4.915226865263499 17.6487731347365
5.5122268652635 2.999226865263502 10.1522268652635
12.289226865263501 12.711680595790497 14.617680595790503
11.366773134736501 28.081319404209502 24.720226865263506
26.610226865263506 4.761226865263502 25.736773134736502
11.732226865263499 5.9307731347365 19.119226865263506
3.880226865263502 26.806773134736503 3.543773134736501
6.151680595790495 26.9542268652635 2.752226865263502
24.2523194042095 8.4662268652635 30.564319404209503
21.6403194042095 21.5057731347365 27.6533194042095
20.769226865263498 31.0432268652635 9.9747731347365
16.6592268652635 25.1577731347365 31.1337731347365
19.127226865263502 22.7747731347365 18.9512268652635
21.9597731347365 17.0497731347365 18.8867731347365
1.7767731347364997 15.3667731347365 19.973226865263506
5.171226865263499 27.7687731347365 13.0087731347365
18.5347731347365 23.030226865263494 10.540226865263499
20.689773134736498 8.0157731347365 24.2007731347365
32.02722686526349 16.5937731347365 27.619226865263506
16.758226865263502 14.130226865263502 11.1676805957905
6.5447731347365 16.4007731347365 0.05222686526349918
9.834680595790502 13.6607731347365 7.245680595790503
18.194226865263495 0.7402268652635016 23.2937731347365
29.9487731347365 6.380226865263502 9.113773134736501
8.2207731347365 16.149226865263493 30.7817731347365
5.364680595790503 16.550134326317504 31.6437731347365
9.329680595790492 28.721319404209503 25.510226865263498
19.101226865263506 5.155226865263501 30.2347731347365
1.2072268652635003 31.3377731347365 12.468226865263496
17.724226865263496 3.121226865263502 20.1927731347365
31.988773134736498 25.8277731347365 28.904319404209502
16.633226865263502 22.721319404209503 31.866773134736498
12.004680595790504 29.5147731347365 25.372226865263507
10.614134326317512 18.3307731347365 12.0547731347365
11.755226865263502 11.4987731347365 23.196226865263505
1.3337731347365 27.7217731347365 31.4423194042095
5.427680595790505 27.1233194042095 1.277773134736501
12.7297731347365 2.7667731347365 19.322226865263495
16.7737731347365 0.16122686526350094 0.3782268652634997
3.1292268652634974 17.1316805957905 13.2412268652635
11.858226865263497 4.1327731347364995 18.379226865263497
15.7077731347365 21.857226865263506 0.029226865263503043
7.1222268652634995 2.6217731347365003 3.4492268652635047
31.9757731347365 4.226865673682511 20.0762268652635
31.881226865263493 12.5997731347365 11.0152268652635
1.5642268652634996 20.0307731347365 19.8383194042095
0.023773134736501333 30.6593194042095 0.6753194042094997
18.9537731347365 8.171226865263499 26.02368059579051
16.514226865263502 3.7702268652635027 29.276226865263503
8.390319404209503 16.2727731347365 17.9062268652635
6.965226865263496 21.1367731347365 8.4397731347365
26.555773134736498 29.2563194042095 17.849680595790502
8.583226865263498 16.114226865263497 17.1883194042095
12.602226865263496 10.337773134736501 14.4587731347365
15.0002268652635 24.1933194042095 10.426226865263494
20.506226865263493 14.7527731347365 6.729773134736501
8.822226865263495 10.127226865263502 23.113226865263506
3.9096805957905048 17.4957731347365 8.8977731347365
4.720226865263498 8.0777731347365 6.302226865263499
21.566226865263495 30.5807731347365 4.176226865263494
28.9827731347365 12.6982268652635 24.870773134736503
17.6137731347365 17.432226865263495 0.6522268652635006
9.357680595790498 13.4863194042095 0.562773134736501
29.721226865263496 16.9283194042095 20.9842268652635
23.529226865263503 19.9457731347365 26.563226865263495
4.173226865263501 20.895226865263503 20.119226865263506
19.788773134736502 27.8987731347365 4.184226865263504
23.7457731347365 12.142773134736501 29.625226865263507
21.53558805684449 30.6437731347365 3.149773134736501
9.1436805957905 3.8027731347364995 29.0953194042095
31.163773134736502 21.6777731347365 11.112226865263501
18.8817731347365 16.599226865263496 31.8013194042095
13.379680595790504 10.606226865263501 13.286226865263501
17.384226865263493 1.3636805957904983 20.650226865263498
22.973226865263506 22.1847731347365 26.180773134736498
18.2517731347365 7.560226865263495 5.174680595790505
21.2457731347365 16.556680595790496 16.951680595790506
6.9972268652634995 24.003226865263507 27.908226865263494
14.5077731347365 4.9357731347365 4.764773134736501
15.1037731347365 12.8992268652635 13.288680595790495
6.379134326317512 0.11977313473649964 1.9662268652635007
12.3597731347365 28.6127731347365 2.096226865263496
3.7506805957904987 2.6162268652634992 15.1167731347365
19.6997731347365 29.8943194042095 9.757680595790504
3.2956805957905004 8.124226865263502 22.6627731347365
4.3277731347365 22.6982268652635 0.29622686526349895
31.7017731347365 24.2342268652635 7.212226865263496
13.150226865263498 27.3382268652635 31.632226865263497
13.620226865263497 29.2847731347365 0.9997731347365004
17.068226865263505 31.5083194042095 9.7867731347365
26.2372268652635 18.876226865263497 14.7737731347365
13.6177731347365 18.057226865263495 9.360226865263499
28.3443194042095 3.002226865263502 25.6107731347365
14.3147731347365 29.5878656736825 1.5712268652635046
11.114226865263497 23.2463194042095 4.5557731347365
17.2097731347365 24.745226865263497 24.0947731347365
9.029773134736502 17.7727731347365 13.7117731347365
26.098226865263506 2.9787731347364996 1.6142268652634968
6.229226865263499 1.0866805957904973 23.9707731347365
14.8033194042095 4.972773134736499 7.8907731347365
5.531680595790505 15.461226865263498 24.970226865263506
9.0702268652635 17.2547731347365 15.254226865263497
23.023226865263503 22.4717731347365 5.530773134736501
4.901226865263503 26.414226865263494 2.333226865263498
26.1217731347365 8.559226865263504 16.256226865263493
17.4027731347365 24.5027731347365 27.7222268652635
22.410773134736502 16.2457731347365 10.4677731347365
4.949226865263505 31.4632268652635 30.2633194042095
31.3523194042095 22.5603194042095 14.362680595790493
10.411226865263501 13.2887731347365 0.27222686526349804
16.304226865263495 13.22986567368251 20.5462268652635
14.6477731347365 19.8022268652635 5.363773134736499
31.1693194042095 30.064773134736498 11.875680595790499
2.452680595790497 2.608680595790503 14.100680595790493
28.4757731347365 9.306226865263504 17.4302268652635
30.099773134736502 5.5847731347364995 24.120226865263497
6.767226865263503 3.0132268652634977 17.9237731347365
31.8273194042095 30.436773134736498 19.972865673682506
26.613319404209502 1.8512268652634987 1.8272268652635049
31.235319404209502 11.4397731347365 30.869226865263506
5.7973194042094995 31.994226865263506 2.6862268652634995
31.304226865263495 12.545226865263501 0.6217731347365003
12.662226865263499 11.1492268652635 23.177319404209502
11.238319404209502 2.2076805957904924 16.4446805957905
27.684680595790496 28.9517731347365 8.327680595790497
25.9093194042095 11.4302268652635 10.5517731347365
4.7042268652635 9.6417731347365 22.1997731347365
27.378773134736498 27.9627731347365 18.797226865263504
26.191226865263495 3.767773134736501 14.681226865263504
22.416226865263503 8.501226865263497 24.7347731347365
28.5687731347365 7.821226865263505 17.0297731347365
15.0227731347365 17.5147731347365 26.939773134736498
7.238226865263499 0.12622686526349725 19.5257731347365
8.988680595790498 18.365680595790508 15.713865673682506
30.318226865263505 23.5633194042095 19.901226865263503
18.973226865263506 0.23368059579050282 21.8682268652635
28.2782268652635 19.083226865263505 1.2342268652635013
5.6737731347365 12.978680595790493 24.171319404209502
1.4632268652635005 31.089226865263505 12.2787731347365
17.842680595790497 14.6907731347365 11.920319404209504
3.9542268652635 15.9787731347365 13.2347731347365
1.0387731347365001 17.6353194042095 26.016680595790504
12.3082268652635 8.5097731347365 18.337226865263496
19.4307731347365 26.6517731347365 19.5492268652635
1.4077731347365 22.6777731347365 12.5447731347365
1.5246805957904996 18.6647731347365 26.608226865263497
1.8522268652634963 12.4167731347365 1.2456805957905033
26.369226865263506 3.5182268652635003 18.3927731347365
31.4267731347365 4.4177731347365 2.4206805957905004
2.282680595790495 29.305773134736498 30.513226865263498
25.2012268652635 23.8687731347365 11.1117731347365
3.6766805957905007 30.4193194042095 27.6127731347365
30.3327731347365 21.9787731347365 12.0957731347365
11.0307731347365 9.7072268652635 22.589226865263505
23.75568059579051 2.630226865263502 1.9476805957905015
9.206226865263496 13.8733194042095 6.9107731347365
25.687226865263504 11.910226865263503 11.796134326317514
29.610319404209502 27.870773134736503 22.430680595790506
5.652773134736501 25.7133194042095 21.9362268652635
9.561680595790506 11.976226865263499 13.493680595790494
32.104226865263506 29.238773134736498 11.0577731347365
2.630226865263502 8.980226865263496 24.5093194042095
5.4017731347365 2.303226865263504 1.411226865263501
11.347680595790493 18.327226865263505 12.860226865263499
19.9037731347365 13.370680595790503 27.2102268652635
16.8007731347365 23.779226865263503 22.6407731347365
27.0817731347365 6.0416805957904955 23.3297731347365
27.4387731347365 5.287773134736501 19.383226865263502
22.1467731347365 19.613226865263506 24.2283194042095
7.807226865263495 13.797226865263504 8.3277731347365
28.9063194042095 29.4062268652635 29.047773134736502
13.5272268652635 19.9237731347365 7.824226865263505
16.211226865263505 27.157226865263503 11.1132268652635
12.2857731347365 13.235680595790498 26.4327731347365
13.357226865263499 17.587226865263496 21.358226865263497
24.538773134736502 11.3842268652635 29.575319404209502
27.9633194042095 7.584226865263496 16.8377731347365
20.462319404209502 16.613226865263506 17.834226865263496
31.4193194042095 25.746226865263502 20.9147731347365
13.633680595790494 2.0122268652635 16.922226865263504
19.4152268652635 18.144226865263498 30.8172268652635
25.233773134736502 10.5702268652635 5.949226865263505
10.493226865263502 22.6457731347365 2.871226865263502
11.0762268652635 4.796773134736501 16.8627731347365
0.7816805957905046 29.550226865263504 18.4932268652635
2.142773134736501 3.3627731347365 27.3357731347365
11.9547731347365 11.4267731347365 25.672773134736502
5.499226865263502 6.800226865263504 4.8932268652635
26.1793194042095 6.574680595790497 25.3977731347365
4.802226865263499 7.869226865263499 20.672226865263504
6.8587731347365 15.561319404209502 12.3497731347365
3.168680595790505 29.236226865263497 29.2613194042095
29.0993194042095 29.932226865263495 29.950226865263495
6.2627731347365 22.751226865263497 9.8307731347365
17.2842268652635 23.8963194042095 27.2617731347365
18.0207731347365 6.7867731347364995 10.306773134736499
12.044226865263504 25.1417731347365 4.827319404209501
4.9206805957905 8.234226865263501 31.3947731347365
13.307226865263495 7.569773134736501 30.6157731347365
7.2232268652634986 17.142226865263503 24.5513194042095
12.4657731347365 4.9602268652635 17.4782268652635
12.7237731347365 28.300226865263504 1.4816805957904933
31.658226865263494 10.647226865263498 2.0006805957904987
13.028319404209501 10.243226865263502 26.6063194042095
1.2093194042094986 18.504680595790504 25.873226865263497
29.2653194042095 7.643680595790499 28.5732268652635
31.493865673682507 22.0617731347365 11.8662268652635
15.3407731347365 24.2303194042095 0.4937731347365002
9.764226865263502 19.6376805957905 12.3697731347365
15.77668059579051 17.9617731347365 20.291773134736502
20.3853194042095 16.836226865263505 17.1832268652635
13.8707731347365 19.1032268652635 20.9122268652635
5.985226865263499 22.0937731347365 10.562680595790496
13.9912268652635 31.4737731347365 17.8607731347365
30.9923194042095 13.4037731347365 1.3966805957904995
12.5677731347365 7.946226865263505 30.852226865263496
11.3397731347365 6.1837731347365 16.973226865263506
27.9787731347365 19.979134326317507 2.114226865263497
4.4147731347365 20.733773134736502 20.108773134736502
11.8787731347365 25.839226865263505 5.520773134736499
2.5812268652634955 0.7217731347365 14.655773134736501
13.779226865263503 25.337319404209502 10.561773134736502
7.2472268652634995 22.6406805957905 28.331226865263496
19.0767731347365 5.005226865263502 5.133680595790494
24.068226865263505 12.7717731347365 29.5137731347365
6.7742268652635005 24.721319404209503 23.617226865263497
22.0297731347365 29.9547731347365 3.9742268652634962
11.569680595790501 3.8557731347365003 16.723226865263506
17.8317731347365 7.6586805957905 5.356226865263501
31.8517731347365 11.3127731347365 8.0062268652635
2.928680595790496 1.6802268652634993 6.5577731347365
29.390226865263493 16.759226865263493 21.0757731347365
8.0567731347365 1.9867731347365005 22.0707731347365
29.059773134736503 13.403226865263498 0.6332268652635022
26.7513194042095 3.086226865263498 7.251226865263497
6.659773134736501 16.693226865263505 23.2203194042095
26.488319404209502 30.135226865263498 16.877226865263502
5.4292268652634945 31.6023194042095 30.186773134736498
17.7737731347365 11.7777731347365 20.6397731347365
16.3837731347365 25.532319404209503 13.404680595790495
24.235226865263506 7.232226865263499 30.8227731347365
26.2273194042095 11.3632268652635 11.4377731347365
18.190226865263504 31.8592268652635 0.6206805957905033
1.5557731347364996 18.3412268652635 25.3022268652635
5.0882268652635005 26.6562268652635 14.2712268652635
18.2847731347365 17.090226865263496 2.4486805957905062
16.2027731347365 25.5967731347365 25.9993194042095
13.7347731347365 21.2102268652635 30.968319404209502
21.1037731347365 10.0137731347365 8.7237731347365
18.0747731347365 25.8682268652635 0.5712268652635046
3.800680595790496 2.7406805957904936 14.485773134736501
22.6892268652635 28.355773134736502 6.288680595790495
1.218226865263496 29.627226865263502 12.328773134736501
21.4302268652635 8.591680595790493 24.769680595790504
13.992226865263497 24.1437731347365 21.0707731347365
7.918680595790505 1.4967731347365003 21.657319404209503
18.809226865263504 7.761680595790494 27.970226865263506
24.726226865263506 18.108226865263497 26.8853194042095
1.860773134736501 25.1427731347365 27.1557731347365
11.349226865263496 11.561773134736502 2.495226865263497
9.837680595790502 19.8142268652635 13.055773134736501
19.9547731347365 6.706680595790502 23.7017731347365
17.8906805957905 26.242773134736503 12.610773134736501
0.5296805957904951 11.603680595790493 11.995134326317512
20.918680595790505 3.1607731347365 20.347680595790507
11.6522268652635 13.248226865263497 13.717226865263498
12.3727731347365 9.7907731347365 32.1512268652635
1.2437731347365002 25.0237731347365 8.168226865263499
9.6892268652635 11.675226865263504 14.791680595790496
19.7433194042095 31.392226865263503 3.3452268652634984
23.3052268652635 29.408226865263494 22.8323194042095
21.7327731347365 9.894680595790504 24.90695821262851
17.2932268652635 25.065226865263504 13.8767731347365
30.5427731347365 11.653226865263498 32.0007731347365
24.0657731347365 25.4017731347365 10.9377731347365
29.703319404209502 22.9767731347365 21.1663194042095
29.874134326317503 12.6436805957905 11.3747731347365
31.5912268652635 21.0557731347365 13.456226865263496
25.5117731347365 17.4767731347365 16.0237731347365
22.327680595790497 22.4332268652635 5.6922268652635
1.6287731347365 2.0417731347365002 15.391226865263498
1.3792268652634974 20.1772268652635 31.965319404209502
4.8112268652634995 2.755226865263502 13.0647731347365
17.1297731347365 23.2907731347365 12.4407731347365
14.676226865263494 19.9827731347365 19.0707731347365
22.8447731347365 22.337226865263496 20.0123194042095
10.3467731347365 3.8042268652634945 29.098226865263506
17.4857731347365 11.883226865263502 1.6981343263175148
20.462319404209502 17.6562268652635 15.9707731347365
1.921226865263499 9.807226865263495 24.9057731347365
16.8837731347365 0.7982268652635014 1.6986805957905062
31.3517731347365 5.763680595790504 4.3137731347365005
22.7932268652635 18.541773134736502 25.3457731347365
31.988319404209502 29.866226865263506 14.049226865263499
30.2567731347365 23.9413194042095 19.266226865263498
19.474226865263496 17.2127731347365 0.02622686526350293
17.491226865263506 17.945680595790506 32.14022686526349
8.597134326317516 12.327134326317505 6.681773134736501
5.9802268652634964 21.836226865263505 28.423226865263494
15.0957731347365 24.2192268652635 25.3517731347365
14.601226865263499 27.834680595790502 19.804226865263495
4.415226865263499 26.5437731347365 3.4067731347365005
1.1067731347364997 1.272226865263498 6.796680595790505
21.9947731347365 19.845226865263506 27.9637731347365
11.7237731347365 10.097680595790493 22.8877731347365
8.2412268652635 32.105773134736495 1.2447731347364996
17.538773134736502 30.6297731347365 0.850226865263501
7.065773134736501 5.062773134736501 9.7547731347365
16.292226865263494 22.375319404209502 0.3952268652635027
20.018226865263493 5.2622268652635 17.3347731347365
4.548226865263501 31.9967731347365 29.053773134736502
9.754226865263497 12.6247731347365 12.931226865263504
14.5477731347365 11.836319404209501 11.606319404209504
7.623226865263497 32.0093194042095 19.0637731347365
22.2067731347365 28.9182268652635 4.307226865263495
18.4537731347365 4.220680595790498 14.010226865263498
16.306226865263504 1.7957731347364998 0.7282268652635011
14.596226865263496 2.4772268652634963 17.4607731347365
25.7603194042095 2.306773134736501 31.9643194042095
4.505773134736501 26.6953194042095 14.0317731347365
32.1467731347365 12.200226865263495 0.47868059579049316
12.0717731347365 30.8467731347365 12.354226865263499
12.111226865263497 3.0572268652634946 17.6767731347365
4.130773134736501 17.289226865263494 13.7317731347365
18.544680595790496 17.135226865263498 1.4092268652634985
23.6297731347365 0.9997731347365004 24.788773134736502
24.2583194042095 3.3537731347364996 1.4666805957904927
15.444226865263495 18.120680595790503 27.464226865263505
16.9152268652635 2.805319404209502 26.291773134736502
0.6222268652634995 12.653226865263498 12.440226865263504
22.0942268652635 22.1317731347365 7.869226865263499
14.292226865263501 28.425773134736502 1.7102268652635004
17.9937731347365 4.1227731347365 28.7817731347365
17.594680595790507 26.3172268652635 11.163226865263503
14.078773134736501 4.1372268652635 6.587680595790502
26.345680595790498 15.373226865263497 4.1257731347365
6.101226865263499 27.8417731347365 13.601226865263499
30.059226865263504 8.090226865263496 28.3827731347365
4.6287731347365 9.1047731347365 5.8812268652635
6.074319404209501 28.6113194042095 13.983680595790503
16.782226865263503 28.143226865263493 19.397680595790504
1.0997731347365 31.890226865263493 10.266226865263498
27.994773134736498 3.809773134736501 23.941226865263495
11.260226865263498 30.997319404209502 12.2442268652635
7.235226865263499 4.325773134736501 10.8277731347365
30.0167731347365 5.135226865263498 1.9906805957904936
17.536226865263494 9.956319404209498 16.3262268652635
11.8876805957905 10.232773134736501 22.484680595790508
5.8902268652635 26.5777731347365 13.5287731347365
18.15768059579051 3.373134326317512 29.064319404209503
8.5516805957905 6.3703194042095 25.113773134736498
9.825680595790502 0.3067731347365008 10.4632268652635
29.422773134736502 6.406226865263498 1.705680595790497
29.7187731347365 19.0207731347365 2.914226865263501
12.8557731347365 27.119773134736498 19.6077731347365
14.826680595790492 16.716865673682506 22.1652268652635
0.47568059579049304 12.721226865263496 10.7712268652635
20.7347731347365 6.9387731347365005 22.379226865263497
3.005226865263502 2.8182268652635045 13.7273194042095
5.847226865263501 28.171680595790505 15.9777731347365
6.2627731347365 19.4053194042095 7.440773134736501
8.299226865263499 23.1002268652635 27.9083194042095
7.1937731347364995 2.5507731347365006 10.4067731347365
21.973226865263506 11.168226865263499 8.0617731347365
31.5193194042095 22.7807731347365 30.3457731347365
7.530773134736501 2.748773134736501 2.3367731347365
11.712773134736501 2.3962268652635004 18.916773134736502
11.4097731347365 9.470226865263498 24.2223194042095
13.1952268652635 8.4052268652635 31.1747731347365
19.3867731347365 2.5872268652634958 20.0767731347365
6.455680595790497 31.3657731347365 30.4297731347365
27.401865673682508 4.2957731347365 22.468319404209502
25.4527731347365 24.391226865263498 12.023226865263503
19.224958212628508 9.983226865263497 10.087588056844481
25.351680595790498 3.5826805957904924 3.2151343263175107
12.845226865263498 25.9047731347365 18.369226865263506
18.6173194042095 24.4447731347365 11.9487731347365
1.0232268652635028 17.2117731347365 8.735773134736501
4.4677731347365 27.3163194042095 13.8467731347365
20.352773134736502 31.2563194042095 9.891226865263498
12.279680595790495 8.0217731347365 18.4583194042095
27.056773134736503 3.3416805957904927 25.393226865263493
24.87768059579051 28.6213194042095 18.341680595790507
18.1897731347365 12.124680595790494 0.7577731347364995
27.6647731347365 3.9666805957904927 24.1967731347365
5.7927731347365 15.2307731347365 1.0882268652635005
21.926226865263494 8.968680595790502 15.1582268652635
30.7317731347365 26.172773134736502 22.932226865263495
16.319226865263495 31.236773134736502 0.7846805957905048
19.349226865263496 7.333680595790497 25.114226865263497
19.7227731347365 19.6832268652635 31.2187731347365
26.1437731347365 3.9777731347365 13.950226865263495
3.6407731347365004 20.953319404209502 18.2593194042095
11.9237731347365 30.8867731347365 9.164319404209504
1.8656805957904936 20.769226865263498 32.1003194042095
6.102134326317511 29.4133194042095 27.650226865263498
30.4572268652635 4.6556805957905 11.842680595790497
17.0217731347365 23.632226865263497 26.188226865263495
6.844773134736501 30.0227731347365 28.8262268652635
19.209226865263496 11.8703194042095 0.4302268652634993
21.4163194042095 8.3767731347365 15.1317731347365
5.807226865263495 27.8837731347365 14.2573194042095
15.2513194042095 10.2207731347365 15.3472268652635
1.036226865263501 15.382226865263497 21.639226865263502
9.9127731347365 4.359226865263501 28.7897731347365
3.697773134736501 29.913226865263503 30.5763194042095
12.166680595790496 3.0457731347365 19.1772268652635
18.3277731347365 27.4127731347365 20.062226865263504
5.0777731347365 26.247226865263507 22.0113194042095
23.2757731347365 20.2902268652635 15.2347731347365
16.170226865263494 26.7923194042095 11.1057731347365
28.503319404209503 6.770773134736499 16.604226865263506
1.4816805957904933 16.5702268652635 9.4007731347365
18.4237731347365 22.2132268652635 9.4327731347365
27.9577731347365 7.668773134736501 9.772134326317513
21.753226865263507 16.357319404209502 18.864226865263497
3.677226865263499 25.425773134736502 23.2806805957905
28.3907731347365 9.861226865263497 20.3857731347365
6.1462268652635 24.9457731347365 24.101226865263506
12.9362268652635 21.2677731347365 31.1673194042095
13.591680595790493 12.3627731347365 13.910226865263503
13.987319404209504 3.2872268652634986 5.4933194042094975
2.0042268652634974 2.6012268652634987 27.402226865263493
13.0647731347365 10.831680595790502 12.6827731347365
5.066226865263495 26.8817731347365 4.140319404209503
21.622226865263507 18.034680595790505 25.882226865263497
19.108773134736502 12.2502268652635 20.925773134736502
13.651226865263503 8.4867731347365 26.119226865263506
21.949226865263505 19.9117731347365 26.558773134736498
18.919226865263504 11.133226865263502 0.333226865263498
2.3692268652634993 3.0097731347365 6.610773134736501
26.931411943155496 28.166773134736502 17.3622268652635
26.3827731347365 5.932226865263495 25.2047731347365
15.910226865263503 25.3237731347365 11.9807731347365
6.793226865263499 23.575226865263495 21.904226865263503
1.5552268652634993 23.372226865263507 12.5047731347365
7.2767731347365 21.235319404209502 25.861226865263497
25.8447731347365 30.6097731347365 16.967680595790497
22.6562268652635 9.9437731347365 14.392773134736501
15.3457731347365 20.920226865263494 31.831319404209502
12.014773134736501 31.1597731347365 12.5942268652635
31.6937731347365 21.2577731347365 10.992226865263497
12.996226865263502 28.314773134736498 0.9207731347364998
30.3713194042095 7.711226865263498 30.4247731347365
16.348226865263506 29.7107731347365 8.1582268652635
8.284226865263498 12.0347731347365 13.3587731347365
24.908226865263494 28.1737731347365 16.763680595790504
26.2077731347365 6.3857731347365 24.422226865263504
4.053226865263504 2.8267731347365004 1.2402268652635016
7.505226865263502 26.6437731347365 0.008226865263502248
28.9567731347365 3.809226865263504 24.0577731347365
2.4132268652635034 16.592680595790497 8.4227731347365
5.460773134736501 22.3117731347365 31.7817731347365
23.9277731347365 10.7132268652635 11.446680595790497
4.857680595790498 8.5797731347365 5.8782268652635
1.1562268652634984 24.184773134736503 6.745226865263497
4.2776805957905 8.3082268652635 22.4763194042095
5.0002268652635 26.942680595790506 13.697226865263495
16.3717731347365 24.6742268652635 10.2686805957905
21.977773134736502 28.498226865263497 6.898226865263503
17.660773134736502 24.1303194042095 0.7952268652635013
32.1303194042095 1.6577731347365 7.3622268652635015
14.1437731347365 21.9127731347365 30.9587731347365
7.6347731347365 0.23577313473650108 20.0187731347365
18.1547731347365 11.8477731347365 5.4557731347365
22.7387731347365 25.6547731347365 12.075226865263495
18.9757731347365 0.08968059579049736 10.3322268652635
18.9367731347365 4.0412268652635035 30.2023194042095
24.8682268652635 2.965680595790502 1.5672268652634997
26.6347731347365 30.718319404209502 6.7372268652635015
18.638226865263498 24.587226865263496 0.4922268652634969
14.484226865263501 11.681226865263504 12.4577731347365
13.605226865263496 28.0983194042095 31.9063194042095
1.7676805957904946 21.111226865263497 0.8282268652634954
31.3363194042095 19.0702268652635 26.2042268652635
4.415226865263499 8.007680595790504 22.479226865263506
29.8383194042095 11.417226865263501 30.4782268652635
11.053680595790496 26.227773134736502 5.043773134736501
29.6597731347365 20.2157731347365 13.6827731347365
20.337680595790502 7.9602268652635 26.626226865263497
18.0537731347365 10.136680595790494 1.8892268652635025
8.7637731347365 14.7347731347365 19.2627731347365
4.113226865263499 31.4787731347365 29.4313194042095
3.117226865263497 11.915226865263499 19.8347731347365
19.7557731347365 17.023226865263503 32.089226865263505
27.9527731347365 4.069773134736501 26.3857731347365
23.3397731347365 23.489773134736502 22.2117731347365
16.8997731347365 29.4782268652635 8.8262268652635
29.4323194042095 1.8962268652635004 25.659680595790505
30.064319404209503 12.389226865263502 12.6203194042095
26.6217731347365 27.3532268652635 17.738226865263506
28.664226865263494 10.8787731347365 4.498773134736501
23.831319404209502 13.947680595790501 22.059680595790496
4.767773134736501 23.3382268652635 5.8337731347365
18.006773134736502 13.876226865263497 25.5287731347365
11.227226865263496 24.4997731347365 5.5237731347365
10.2697731347365 31.8337731347365 10.3657731347365
7.015319404209503 1.9787731347364996 22.2812268652635
7.0672268652635 24.310226865263495 22.5013194042095
6.170226865263501 24.7007731347365 20.0497731347365
26.9087731347365 7.8292268652635 16.247226865263507
27.0267731347365 29.440773134736503 30.7227731347365
26.9037731347365 1.8642268652634968 14.0276805957905
13.1282268652635 31.834319404209502 10.4357731347365
12.4787731347365 1.8762268652634972 16.3077731347365
18.265226865263493 1.4797731347365009 20.5257731347365
14.2887731347365 29.8197731347365 28.0947731347365
24.2243194042095 9.656134326317513 15.8707731347365
17.8717731347365 22.6907731347365 9.7207731347365
14.5807731347365 9.622773134736502 17.5287731347365
26.5667731347365 1.0632268652634949 12.684226865263504
20.635226865263498 3.3232268652635 16.3577731347365
27.3257731347365 0.47568059579049304 2.411226865263501
14.0092268652635 23.5577731347365 9.923226865263501
14.833680595790497 21.712226865263496 0.35822686526349656
13.4097731347365 32.0607731347365 16.259226865263493
27.6733194042095 5.641226865263498 26.321226865263505
25.654319404209502 18.0497731347365 14.8872268652635
16.114226865263497 4.8777731347365005 28.2827731347365
1.4772268652634963 8.059226865263504 11.5306805957905
8.7307731347365 12.569226865263495 31.7677731347365
16.2863194042095 29.5917731347365 0.6286805957904988
0.33968059579049736 30.0383194042095 18.8687731347365
3.203773134736501 8.9387731347365 22.205226865263505
4.755773134736501 23.2387731347365 7.734226865263501
12.413226865263503 31.2937731347365 9.2907731347365
0.6776805957905054 12.862226865263501 0.23822686526349912
17.9667731347365 24.6613194042095 0.13722686526350003
19.3207731347365 29.176226865263494 17.9157731347365
24.6682268652635 25.101226865263506 12.020226865263503
18.867226865263497 25.7192268652635 7.360226865263499
5.040226865263499 31.2467731347365 28.6917731347365
0.4122268652634986 12.860680595790498 11.982773134736501
15.5577731347365 4.038680595790495 29.2557731347365
14.6192268652635 17.8532268652635 20.3022268652635
21.5527731347365 20.6337731347365 14.5552268652635
5.9467731347365 2.3636805957904983 2.2122268652634958
14.0057731347365 9.181226865263504 25.727773134736502
9.616680595790498 1.9802268652634964 26.977773134736502
27.8993194042095 12.7507731347365 24.6217731347365
29.184773134736503 26.9527731347365 21.3927731347365
31.3263194042095 9.645226865263503 19.26768059579051
31.334319404209502 30.157319404209503 14.0187731347365
7.713773134736501 0.9932268652635017 1.6757731347365006
12.04813432631751 31.665134326317514 18.335865673682505
27.3967731347365 4.235773134736501 20.9317731347365
32.1303194042095 26.3377731347365 8.397680595790504
5.804680595790501 29.997226865263507 27.357226865263506
16.7337731347365 23.357680595790498 11.807319404209498
27.6097731347365 27.744773134736498 17.428226865263504
32.123773134736496 22.8613194042095 7.135226865263498
17.5087731347365 23.143226865263493 11.0327731347365
27.9523194042095 11.410226865263503 25.8237731347365
0.7122268652634958 13.5882268652635 11.9767731347365
19.279226865263503 27.3247731347365 19.974773134736502
16.8227731347365 18.0732268652635 20.748680595790503
11.412680595790505 11.332680595790492 1.0626805957904963
23.8997731347365 23.4437731347365 20.4737731347365
8.661226865263501 3.4307731347364996 28.2577731347365
5.3057731347365 27.5993194042095 4.030773134736501
16.608226865263497 24.2177731347365 0.12122686526350179
22.8967731347365 1.2856805957904953 24.9062268652635
6.741226865263499 19.8077731347365 8.468226865263496
31.4602268652635 3.863226865263499 2.5496805957905053
25.623226865263497 4.653226865263498 18.700319404209502
0.18068059579050555 6.544680595790496 29.0758656736825
14.1342268652635 11.6597731347365 11.9727731347365
12.153226865263498 31.7867731347365 9.810226865263495
26.8627731347365 24.1466805957905 12.2442268652635
31.2903194042095 20.2843194042095 13.755226865263502
27.506226865263493 1.1666805957904955 13.852680595790503
20.792226865263494 29.681773134736503 3.7472268652634995
6.3407731347365 6.950226865263495 6.7567731347365
22.407226865263503 27.408226865263494 12.773319404209499
14.7857731347365 21.455226865263505 6.796226865263499
28.236773134736502 5.8407731347365 25.738773134736498
5.850226865263501 22.063226865263495 27.5687731347365
17.6937731347365 14.6387731347365 13.118226865263502
19.3823194042095 7.344680595790493 27.2567731347365
22.224773134736502 9.674226865263499 15.783319404209504
18.4607731347365 31.2167731347365 24.2227731347365
1.1082268652634966 20.0563194042095 25.6333194042095
27.117773134736503 27.8817731347365 9.294680595790496
3.4502268652634953 7.782226865263503 0.40213432631750834
8.008226865263502 3.2122268652634958 8.757226865263497
25.562226865263504 7.6792268652634945 0.8082268652634994
17.871226865263502 10.9417731347365 1.0792268652635002
25.9667731347365 11.226680595790498 25.6067731347365
25.864773134736502 8.119773134736501 17.6587731347365
8.163226865263503 16.8387731347365 29.803680595790496
10.311773134736502 20.480773134736502 13.2367731347365
0.732773134736501 30.370773134736503 12.6127731347365
0.6036805957904932 18.3407731347365 26.852773134736502
18.578226865263495 24.898226865263503 6.147226865263498
1.9306805957905055 31.2357731347365 4.516680595790504
3.2012268652635 1.8487731347365006 12.741773134736501
16.152226865263493 23.0713194042095 26.7072268652635
28.818680595790497 24.6503194042095 20.737588056844515
28.7327731347365 12.953773134736501 24.0013194042095
5.752226865263502 31.2797731347365 28.803226865263504
13.2927731347365 31.9463194042095 17.2497731347365
11.895226865263503 8.1947731347365 23.2342268652635
2.7337731347365004 16.38068059579051 8.363319404209502
8.423319404209504 13.1437731347365 8.8217731347365
27.8207731347365 30.1652268652635 29.7283194042095
27.3607731347365 28.2047731347365 15.6507731347365
14.619680595790499 11.337773134736501 11.30113432631751
21.0282268652635 3.2652268652635 7.154680595790495
5.4427731347365 26.0687731347365 22.785773134736502
11.659226865263498 12.677773134736501 11.912226865263499
6.1697731347365 14.4287731347365 26.0163194042095
4.7527731347365005 15.4577731347365 27.5397731347365
15.603226865263501 18.5267731347365 22.824226865263505
3.029680595790495 28.646226865263493 10.7347731347365
22.3517731347365 24.1682268652635 5.229226865263499
12.569226865263495 17.925680595790496 26.205226865263505
19.313226865263495 9.110226865263499 25.505226865263502
9.459226865263496 28.1493194042095 24.4933194042095
2.211226865263498 31.2237731347365 5.965226865263496
5.9562268652634955 16.383226865263502 25.627226865263502
18.625226865263507 9.1117731347365 27.2453194042095
0.17022686526350128 20.442680595790506 27.9783194042095
9.397226865263498 7.2367731347365005 5.2467731347365
12.843226865263496 28.0887731347365 32.0277731347365
0.9877731347365 12.342226865263498 31.5367731347365
29.2102268652635 5.583680595790497 3.131680595790499
30.119773134736498 8.4557731347365 28.7773194042095
19.131226865263493 30.875773134736498 8.407226865263503
6.6052268652634964 2.144226865263498 19.660773134736502
12.010680595790504 11.588773134736499 14.295226865263501
23.1063194042095 12.980226865263496 21.840680595790502
24.1793194042095 0.5792268652635002 25.324226865263505
31.773319404209502 4.6327731347364995 19.706226865263496
3.556680595790496 30.375773134736498 29.703226865263495
20.9512268652635 15.5702268652635 18.4937731347365
29.9907731347365 23.440226865263504 21.7987731347365
18.4542268652635 17.5827731347365 1.9102268652635033
14.807226865263495 5.062226865263504 28.1917731347365
2.367226865263497 32.063226865263495 6.614680595790503
5.741680595790498 26.354226865263506 2.844773134736501
21.4782268652635 29.6433194042095 6.224226865263496
26.2157731347365 1.6353194042095005 14.258226865263502
15.4307731347365 15.4717731347365 21.6967731347365
26.6217731347365 29.0943194042095 16.3727731347365
16.212226865263496 17.456226865263496 22.6067731347365
14.823680595790506 24.6413194042095 9.175226865263504
18.6717731347365 3.1312268652635 19.785226865263503
0.49422686526349935 29.6403194042095 19.3172268652635
1.891680595790504 4.272680595790504 27.189773134736498
17.7687731347365 22.8717731347365 0.8902268652635001
3.476680595790498 2.451319404209503 13.898226865263503
9.4707731347365 16.7607731347365 17.1777731347365
28.3082268652635 11.632865673682502 24.0844119431555
16.345226865263506 22.1967731347365 31.3437731347365
11.8327731347365 29.3507731347365 11.163226865263503
28.280226865263494 19.7507731347365 1.4807731347365003
15.8352268652635 17.056680595790496 22.0907731347365
28.8807731347365 12.071226865263505 23.9117731347365
22.735226865263506 20.248226865263497 6.7926805957905
20.7707731347365 15.547226865263504 17.5282268652635
12.406680595790505 30.3567731347365 10.7587731347365
13.9787731347365 18.5467731347365 27.275226865263498
16.5167731347365 9.922680595790496 15.2347731347365
26.139226865263502 28.774226865263493 16.2807731347365
30.9577731347365 11.393319404209503 24.364773134736502
28.029865673682508 13.6937731347365 24.462319404209502
27.7923194042095 27.900865673682503 8.358680595790503
14.918226865263499 25.645226865263503 11.191226865263495
7.8292268652635 18.161226865263494 24.8267731347365
22.7847731347365 23.5257731347365 4.720226865263498
14.952226865263505 21.151226865263503 1.1952268652634999
31.941226865263495 23.694226865263495 14.985680595790498
12.9722268652635 12.8387731347365 27.378226865263507
25.2282268652635 15.293773134736501 2.5797731347365005
22.9092268652635 24.1747731347365 20.806226865263504
4.097773134736499 3.444226865263495 28.1967731347365
2.2787731347365003 12.340319404209499 0.5552268652634993
16.0477731347365 25.5817731347365 11.392226865263503
25.8217731347365 27.7157731347365 19.6817731347365
26.8577731347365 26.9217731347365 8.8936805957905
26.488773134736498 3.1496805957904996 14.326680595790492
6.9732268652634986 26.2577731347365 0.5897731347365003
10.068680595790497 11.1862268652635 0.3767731347365011
16.8027731347365 28.129226865263497 7.0097731347365
28.8202268652635 30.2117731347365 29.9847731347365
1.6376805957904992 29.8447731347365 18.8017731347365
11.8247731347365 29.602773134736502 10.474226865263496
16.1447731347365 23.5732268652635 31.2137731347365
24.875319404209502 19.047773134736502 24.1497731347365
14.232226865263499 9.8022268652635 26.119226865263506
31.5487731347365 10.5672268652635 7.066226865263495
21.433319404209502 9.507680595790504 15.5126805957905
20.0053194042095 15.8477731347365 15.3657731347365
13.4197731347365 10.770226865263503 11.153319404209501
4.0762268652635 22.5213194042095 31.4123194042095
17.8067731347365 1.7682268652635003 20.200226865263495
7.783319404209504 2.9417731347365006 2.8397731347365003
26.5177731347365 29.4547731347365 30.477773134736502
30.555319404209502 23.979226865263506 20.7827731347365
26.0237731347365 30.6747731347365 7.949226865263505
5.215680595790502 24.4437731347365 23.2603194042095
2.8282268652634954 2.3832268652635022 26.5177731347365
9.744680595790499 0.35822686526349656 2.8342268652634957
18.3127731347365 3.178226865263504 18.8442268652635
21.0732268652635 3.8587731347365004 20.8857731347365
18.9572268652635 0.7996805957905053 21.7897731347365
11.6993194042095 0.2656805957904993 12.523226865263503
31.7467731347365 18.4787731347365 28.251773134736503
19.9217731347365 9.120773134736499 25.738773134736498
16.131773134736502 4.772226865263498 26.626226865263497
10.2727731347365 23.4493194042095 5.9633194042095035
23.1677731347365 22.8652268652635 20.371226865263502
21.2097731347365 6.599319404209499 23.684226865263504
22.2567731347365 22.003226865263507 7.3482268652634986
20.224226865263496 30.372773134736498 9.238680595790498
16.3957731347365 28.5137731347365 7.275680595790504
1.9666805957904927 31.3437731347365 31.777226865263493
1.986680595790503 31.299319404209502 30.8807731347365
5.042226865263501 26.929226865263495 13.001226865263497
30.655226865263494 11.328773134736501 6.620773134736501
9.6402268652635 12.4487731347365 0.6917731347365006
1.4572268652635003 19.9602268652635 27.6183194042095
0.32568059579050157 16.1257731347365 28.233226865263497
1.8147731347365 23.8883194042095 6.1462268652635
27.012226865263493 1.9767731347365007 0.09922686526349622
24.5147731347365 8.0972268652635 0.19422686526349509
28.680773134736498 12.415226865263499 24.294226865263504
15.9557731347365 22.5837731347365 24.529226865263503
2.697773134736501 0.4046805957904951 18.974773134736502
26.2257731347365 6.354680595790498 26.7497731347365
29.1733194042095 12.213319404209503 30.8297731347365
11.900680595790504 13.072319404209498 22.9433194042095
0.5442268652635036 19.0103194042095 27.1737731347365
17.0147731347365 3.476680595790498 13.9017731347365
11.8632268652635 2.7697731347365 16.6967731347365
9.869680595790499 12.0857731347365 15.240226865263502
24.9932268652635 0.3416805957904927 26.1617731347365
27.295226865263494 2.3851343263175124 7.077226865263505
0.1282268652634997 31.2327731347365 12.145680595790495
18.1563194042095 2.546226865263499 21.549680595790505
14.9547731347365 29.461226865263505 1.079134326317515
25.930773134736498 18.873226865263497 26.7007731347365
17.0087731347365 23.7547731347365 25.134226865263493
0.38277313473649954 11.943226865263505 13.184773134736501
17.860226865263506 30.180773134736498 8.4987731347365
18.334226865263496 26.0642268652635 31.4212268652635
32.1152268652635 22.3127731347365 6.981680595790493
12.377226865263502 10.872773134736502 25.3183194042095
17.288773134736502 9.6757731347365 14.787226865263499
12.486226865263497 1.410134326317504 18.9263194042095
18.6267731347365 7.913226865263503 4.828226865263495
4.741226865263499 22.2087731347365 0.7672268652635026
27.0733194042095 4.922226865263504 21.1107731347365
24.6682268652635 4.9497731347365 19.036226865263494
29.5917731347365 3.9022268652635006 3.7316805957904933
9.0227731347365 14.438680595790501 7.867680595790503
7.398226865263503 3.3762268652634972 10.8717731347365
10.5317731347365 10.194226865263495 24.1933194042095
25.8713194042095 29.1537731347365 8.315680595790496
17.696226865263505 23.8082268652635 0.060226865263494744
19.0017731347365 2.2812268652634984 21.047773134736502
1.5857731347365007 22.030226865263494 31.4517731347365
6.346226865263496 27.575319404209502 15.940226865263504
21.1562268652635 4.715226865263496 8.195680595790506
18.3947731347365 3.860680595790498 19.0597731347365
13.802773134736501 17.433680595790506 27.6923194042095
4.971226865263496 22.501226865263497 8.001773134736501
3.427226865263499 2.0042268652634974 15.275226865263498
24.0972268652635 1.4262268652634944 0.4202268652635013
24.034680595790505 1.6866805957905058 1.4676805957904975
