12.6492268652635 28.702226865263505 9.043226865263499
4.886226865263502 8.953226865263495 24.9857731347365
19.015226865263493 11.3017731347365 17.583226865263505
17.298226865263494 11.4747731347365 21.496226865263502
2.6702268652635013 29.883226865263502 7.145226865263503
23.6213194042095 5.5812268652634955 2.9802268652634964
15.844773134736501 0.02968059579049509 14.272319404209501
13.612226865263501 6.58113432631751 31.311773134736498
9.235773134736501 15.0877731347365 16.6953194042095
12.167226865263501 0.6232268652634971 13.1067731347365
19.8807731347365 30.4187731347365 31.4537731347365
20.5627731347365 4.098773134736501 23.0517731347365
16.9047731347365 25.2617731347365 4.030226865263501
21.6433194042095 2.7412268652634992 30.380226865263502
30.431773134736503 3.011773134736501 11.4937731347365
13.737226865263501 6.9972268652634995 11.6797731347365
23.2287731347365 3.286226865263501 30.0623194042095
20.9447731347365 17.074680595790497 29.6627731347365
5.841680595790493 6.9427731347365 23.608773134736502
18.5107731347365 28.166773134736502 11.1037731347365
18.3503194042095 4.3232268652635 18.3287731347365
16.6897731347365 28.7953194042095 2.0127731347365003
0.9727731347364994 28.038226865263503 7.468226865263496
16.1892268652635 28.7513194042095 7.211680595790497
31.276226865263503 32.095319404209505 2.5087731347365008
28.1467731347365 31.5983194042095 16.194226865263495
22.286226865263494 6.060226865263495 3.3562268652635012
21.6013194042095 26.428773134736502 2.511319404209498
7.495773134736501 1.4747731347365 14.886226865263502
15.113773134736501 16.4007731347365 1.7107731347365007
8.924773134736501 13.6917731347365 6.219680595790493
17.6487731347365 23.421319404209502 4.620226865263497
11.270226865263503 28.434773134736503 11.1312268652635
19.644226865263498 8.815226865263504 18.3897731347365
1.3733194042095 25.247319404209502 6.001226865263497
22.753773134736498 29.114773134736502 23.4483194042095
28.4857731347365 9.0107731347365 16.545226865263494
13.0577731347365 23.6557731347365 23.8287731347365
22.9083194042095 2.2812268652634984 0.27122686526350037
4.2912268652635035 10.141680595790504 25.9842268652635
15.4087731347365 1.0152268652635001 3.7627731347365003
27.6487731347365 11.029226865263503 1.3687731347365002
20.0787731347365 0.0032268652634996897 30.8263194042095
20.699226865263505 4.696226865263505 31.7812268652635
28.3137731347365 2.9687731347365 19.2457731347365
9.901226865263503 12.476319404209502 12.2042268652635
20.395319404209502 29.489226865263497 1.7497731347365004
23.958226865263505 11.472680595790493 25.678680595790496
2.0082268652635022 14.114226865263497 9.362680595790493
23.9657731347365 23.4693194042095 15.0867731347365
18.1053194042095 28.9507731347365 9.9482268652635
9.1347731347365 18.2567731347365 1.8823194042095004
21.7567731347365 30.0167731347365 8.7837731347365
27.3137731347365 0.9306805957905055 1.5496805957905053
19.3127731347365 12.6772268652635 18.8622268652635
9.8647731347365 27.8417731347365 8.721226865263496
2.3482268652634986 15.191680595790501 10.993226865263502
21.084680595790502 5.208226865263498 21.496226865263502
9.166226865263503 8.0707731347365 20.5762268652635
22.997226865263507 2.6872268652635043 3.655773134736501
16.270226865263503 21.1217731347365 23.3947731347365
18.979226865263506 3.7051343263175056 6.1312268652635
14.921773134736501 6.1037731347365 22.860226865263506
15.4387731347365 10.0957731347365 18.334319404209502
22.9446805957905 6.9297731347365 22.144226865263498
20.7252268652635 31.3627731347365 31.8973194042095
29.184226865263504 17.7317731347365 26.872773134736498
14.9197731347365 3.7347731347365 6.597226865263501
29.239773134736502 11.877226865263502 13.614226865263497
13.020773134736501 2.290773134736501 10.918773134736501
19.402226865263493 1.9686805957905023 11.0967731347365
9.7907731347365 31.935226865263495 15.279226865263503
9.9387731347365 0.014680595790494522 13.011680595790494
20.8966805957905 6.1462268652635 20.1463194042095
13.474226865263496 23.087319404209502 28.2132268652635
24.2587731347365 31.3046805957905 30.1597731347365
3.6432268652635003 3.7812268652634984 2.7386805957904983
27.3297731347365 0.7106805957904925 17.8217731347365
27.813226865263495 20.110226865263506 29.735226865263506
22.5237731347365 16.1017731347365 0.010680595790503844
26.026226865263503 12.616680595790498 27.3033194042095
3.732680595790498 7.062226865263504 27.544773134736502
13.6522268652635 9.0777731347365 18.089680595790497
18.3667731347365 4.782680595790495 12.562134326317505
15.5257731347365 10.6342268652635 25.5547731347365
21.8827731347365 30.232226865263506 7.295226865263501
3.303226865263504 7.0997731347365 26.6703194042095
25.009226865263493 2.6567731347365005 16.8187731347365
25.855226865263496 8.123680595790503 3.8386805957904926
20.7997731347365 25.9557731347365 22.8847731347365
23.050226865263504 12.246226865263502 19.108226865263497
26.5467731347365 4.5327731347365 5.806226865263504
3.5922268652634983 6.2437731347365 19.9367731347365
24.6677731347365 9.5133194042095 22.922226865263504
13.3842268652635 5.877226865263502 12.064680595790506
18.7067731347365 2.6997731347364997 4.729226865263499
29.997773134736498 16.5297731347365 14.166226865263503
11.1737731347365 29.136226865263502 5.0837731347365
3.6822268652634946 3.0272268652635006 25.6677731347365
4.2302268652634964 31.884226865263493 15.629226865263497
3.7816805957905046 5.6052268652634964 23.508226865263502
24.783226865263494 19.025680595790504 27.4447731347365
0.8427731347365004 4.450226865263495 24.1417731347365
30.706226865263496 16.672226865263504 1.3396805957904974
18.804226865263495 16.7257731347365 28.8652268652635
19.266226865263498 6.596226865263496 4.867226865263497
2.214226865263498 28.9062268652635 9.9357731347365
7.915226865263499 17.9113194042095 14.206226865263496
16.6092268652635 5.357226865263499 22.965319404209502
16.6097731347365 8.0647731347365 7.051226865263494
19.2267731347365 8.197226865263495 24.9062268652635
24.2992268652635 9.4777731347365 6.4137731347365
28.1107731347365 27.4757731347365 8.205226865263505
13.5197731347365 25.2357731347365 8.944226865263495
19.855773134736502 8.067319404209503 18.8973194042095
14.424773134736501 27.6002268652635 9.036226865263501
16.248680595790503 2.4366805957905058 9.910226865263503
23.9452268652635 6.124226865263502 23.666773134736502
25.0833194042095 3.1452268652635027 30.6047731347365
11.459226865263496 5.358680595790503 8.632680595790504
21.5167731347365 0.4447731347365007 7.238773134736499
12.954680595790492 9.5537731347365 22.622226865263507
31.4387731347365 12.092226865263498 9.334226865263496
16.8013194042095 5.770773134736499 13.2742268652635
20.9437731347365 31.888226865263498 0.2053194042095008
5.8752268652635 1.3027731347364995 23.757226865263497
11.550226865263504 4.312773134736501 8.237226865263501
27.4817731347365 32.0943194042095 14.8787731347365
6.169226865263504 3.7416805957904984 25.8973194042095
25.205226865263505 10.1917731347365 20.1853194042095
15.3872268652635 22.8577731347365 20.2637731347365
17.0337731347365 8.311773134736502 21.9527731347365
9.525226865263498 1.0482268652635014 22.4122268652635
4.955226865263505 25.0163194042095 0.928680595790496
26.0487731347365 16.256773134736502 26.914226865263494
19.843319404209502 15.767226865263503 6.742680595790503
6.6976805957905015 1.389773134736501 21.559226865263504
15.5217731347365 29.7837731347365 10.832680595790492
17.2617731347365 26.4077731347365 1.3046805957905008
1.7657731347365004 25.697226865263495 8.182226865263495
24.791773134736502 31.690773134736503 20.065226865263504
30.312226865263504 4.479773134736501 15.273226865263503
21.1137731347365 15.6177731347365 23.7753194042095
26.988226865263506 13.400226865263498 5.181773134736501
7.742226865263497 12.593680595790502 24.7782268652635
8.859680595790493 8.242226865263497 24.9157731347365
10.379680595790504 2.8601343263175067 10.999226865263502
8.547226865263504 9.639773134736501 23.909680595790505
20.169773134736502 6.8107731347365 24.5157731347365
16.766226865263498 15.775226865263498 27.9097731347365
23.095226865263506 3.157226865263503 18.2037731347365
16.657226865263503 22.711226865263505 23.2192268652635
18.3207731347365 7.409680595790505 16.8757731347365
29.892319404209502 26.700226865263495 9.949226865263505
26.2167731347365 7.215226865263496 14.982680595790498
13.6697731347365 5.543226865263499 0.3752268652634996
20.4842268652635 11.919226865263504 29.2683194042095
3.1636805957904954 10.2257731347365 19.7317731347365
26.5887731347365 11.6417731347365 24.181773134736503
22.6742268652635 26.0103194042095 24.3292268652635
18.2757731347365 3.8117731347365 25.1447731347365
20.0927731347365 6.1547731347365 12.9667731347365
20.4152268652635 28.613773134736498 18.939680595790506
11.7472268652635 1.2737731347364996 9.663865673682508
12.0747731347365 28.542226865263494 4.878680595790499
28.178773134736502 8.1162268652635 15.880680595790508
18.0197731347365 8.8447731347365 22.491226865263506
30.0437731347365 0.8692268652634993 1.2652268652635001
5.054680595790501 5.1432268652635 23.8472268652635
9.2507731347365 15.160319404209499 15.8517731347365
15.8022268652635 3.802226865263499 11.067134326317515
22.3483194042095 25.764319404209502 3.225226865263501
13.4022268652635 4.0982268652634986 7.9427731347365
19.1922268652635 4.4757731347364995 18.3567731347365
6.8277731347365 8.833226865263498 23.533226865263494
10.5397731347365 7.973773134736501 9.3767731347365
14.4487731347365 15.790226865263499 26.2423194042095
0.02177313473649889 7.0643194042095026 24.837680595790502
19.7986805957905 1.0142268652635025 7.5807731347365
29.8592268652635 21.1982268652635 29.1587731347365
22.2747731347365 1.3296805957904922 4.022680595790504
25.849226865263496 8.693226865263505 5.0557731347365
6.030226865263501 3.915680595790505 3.1111343263175115
19.2042268652635 30.3237731347365 9.968226865263496
8.5212268652635 16.857319404209502 6.455680595790497
16.2837731347365 23.102773134736502 22.5337731347365
8.232680595790498 12.4912268652635 24.4177731347365
26.5697731347365 0.6567731347365005 2.161226865263501
22.175226865263504 6.090226865263496 7.4117731347364995
20.181226865263504 14.670319404209504 25.9793194042095
30.568226865263505 10.818680595790497 2.5812268652634955
13.4337731347365 9.7267731347365 23.158226865263494
4.025680595790504 10.469680595790493 20.2667731347365
3.4916805957904984 5.6827731347365 1.1892268652634996
12.9937731347365 30.013226865263498 6.184226865263504
22.1477731347365 16.038226865263503 30.8187731347365
5.406226865263498 4.220226865263498 20.6682268652635
6.351226865263499 5.214226865263498 20.2207731347365
17.7107731347365 4.969226865263501 8.109680595790493
32.098226865263506 3.0152268652635 13.913226865263503
20.994226865263506 28.7813194042095 8.8737731347365
13.572226865263495 30.1383194042095 13.600226865263501
1.5547731347365001 14.578680595790502 1.7572268652634975
19.4187731347365 11.3497731347365 19.128226865263507
18.574226865263505 6.671226865263499 24.5677731347365
17.8217731347365 10.222134326317516 4.0327731347365
8.6737731347365 2.729226865263499 13.6772268652635
14.642773134736501 27.280226865263494 3.775226865263498
14.8457731347365 10.800226865263504 17.2177731347365
11.473226865263499 2.2896805957905 12.708226865263498
2.550226865263504 1.3552268652634964 24.485226865263506
26.310226865263495 2.2316805957904933 32.033226865263494
23.553226865263504 23.383226865263502 1.0642268652634996
1.2772268652635006 6.959680595790502 22.766226865263498
26.366773134736498 5.122134326317507 6.9977731347365
4.787680595790505 8.6917731347365 17.9707731347365
20.385226865263498 13.857773134736501 22.842226865263505
18.190865673682495 31.9446805957905 30.564319404209503
24.0097731347365 0.6962268652635046 2.863226865263499
26.005226865263502 17.1017731347365 29.282319404209503
21.5312268652635 7.584680595790502 10.572226865263495
30.6347731347365 27.7767731347365 28.1183194042095
21.785226865263503 12.867226865263497 4.633773134736501
19.1182268652635 5.846226865263496 24.4182268652635
15.427319404209502 9.215226865263496 6.5517731347365
16.6307731347365 26.0123194042095 24.7527731347365
19.6367731347365 1.0116805957904944 1.2856805957904953
24.0567731347365 14.5957731347365 27.625226865263507
18.013226865263498 2.404226865263503 10.7527731347365
5.9017731347365 12.3442268652635 22.4782268652635
19.1837731347365 28.458226865263505 0.30777313473650025
11.360226865263499 27.2992268652635 6.7207731347365005
19.4842268652635 9.831773134736501 27.752226865263502
20.6317731347365 7.3782268652635 2.0002268652634996
8.1192268652635 32.1092268652635 12.482773134736501
13.0882268652635 28.4782268652635 5.3696805957904985
24.809226865263504 3.1836805957905057 2.3722268652634995
22.6977731347365 16.7257731347365 24.5177731347365
4.3156805957904965 8.5732268652635 28.062226865263504
22.6867731347365 9.7247731347365 25.857319404209502
12.5297731347365 22.8683194042095 8.474226865263496
28.2203194042095 9.416680595790496 2.5167731347365
9.901319404209499 26.9557731347365 10.588773134736499
14.661226865263501 25.3713194042095 5.6952268652635
21.5882268652635 9.171226865263499 28.2797731347365
19.218226865263496 17.3377731347365 22.3817731347365
25.528680595790505 24.002226865263502 20.0487731347365
16.3442268652635 23.614773134736502 24.0762268652635
16.2757731347365 9.7337731347365 19.5462268652635
8.445680595790506 16.4567731347365 5.1537731347365
7.117226865263497 10.6187731347365 25.443226865263505
25.780226865263494 5.719773134736501 6.124319404209498
25.186773134736498 2.697226865263495 4.7012268652635
20.7437731347365 18.7312268652635 25.3537731347365
22.3207731347365 30.4553194042095 10.421773134736501
27.645226865263503 8.767226865263503 15.257226865263497
12.823319404209503 29.610680595790498 4.1783194042095
2.947226865263495 11.2197731347365 27.2797731347365
2.6776805957905054 3.006680595790499 7.071226865263505
26.7107731347365 1.7546805957905036 0.2642268652635025
0.5717731347364996 3.1192268652634993 21.206680595790502
16.241319404209502 31.8503194042095 14.7682268652635
13.3273194042095 29.891226865263498 14.020773134736501
11.100226865263501 3.4372268652635043 2.3526805957905026
26.5372268652635 11.95313432631751 0.9862268652634967
20.0462268652635 8.635226865263498 4.8137731347365005
23.733226865263497 11.925680595790496 6.863773134736499
25.2257731347365 12.5002268652635 26.9557731347365
21.0547731347365 11.190680595790496 5.2117731347365
29.677773134736498 4.7687731347365006 17.134226865263493
24.9717731347365 0.49422686526349935 2.3762268652634972
13.2217731347365 9.117226865263497 18.584226865263496
4.924226865263499 5.5387731347365 1.2336805957905028
30.6943194042095 1.0207731347364994 17.1547731347365
31.1647731347365 2.3347731347364995 13.017680595790495
12.4707731347365 14.686680595790506 4.0997731347365
4.3782268652635 8.0942268652635 18.5672268652635
21.2617731347365 3.4742268652634962 6.126773134736501
13.566226865263495 22.3223194042095 6.8226805957905015
28.111226865263497 28.6707731347365 9.977226865263496
19.283226865263494 13.5212268652635 26.617773134736503
14.2042268652635 12.025226865263498 18.160773134736502
7.323680595790506 3.0877731347364996 23.051226865263494
2.3377731347364996 2.6162268652634992 3.0732268652635
6.5016805957905035 17.9087731347365 13.036319404209504
16.8213194042095 29.7697731347365 4.426226865263494
21.5672268652635 6.5416805957904955 3.2976805957904958
15.9227731347365 23.9497731347365 3.5302268652635007
20.232226865263506 15.2497731347365 30.9117731347365
0.1527731347365009 8.281226865263498 10.141226865263498
23.928773134736502 12.5057731347365 28.021226865263493
14.160319404209499 22.5822268652635 4.2477731347365
31.3112268652635 4.0637731347365005 24.059226865263504
16.4007731347365 11.149773134736499 6.9427731347365
10.8507731347365 29.1663194042095 10.913226865263503
14.5623194042095 6.0367731347364995 5.0517731347365
23.3903194042095 0.0387731347365019 15.9692268652635
23.539226865263494 9.586680595790497 2.9802268652634964
20.170226865263494 24.1963194042095 3.6462268652635004
20.628773134736498 16.570773134736502 27.030226865263494
18.8817731347365 29.2693194042095 8.9912268652635
3.2147731347365003 1.522226865263498 24.433773134736498
21.3637731347365 9.328680595790502 22.5957731347365
18.184226865263504 26.1427731347365 27.6503194042095
20.2377731347365 30.498226865263497 6.310226865263495
25.447226865263495 0.3422268652634983 31.3763194042095
17.1646805957905 6.1607731347365 2.1562268652634984
15.5877731347365 5.168773134736501 9.103226865263501
12.971226865263496 1.5922268652634983 9.6892268652635
23.9477731347365 5.5792268652635 8.520319404209499
6.9747731347365 4.966773134736501 11.8447731347365
9.3737731347365 5.050680595790496 8.8467731347365
26.625319404209502 7.7622268652635 0.7542268652634974
27.4263194042095 13.0807731347365 12.053226865263504
23.8297731347365 3.9592268652634957 30.937773134736503
18.9116805957905 15.2857731347365 26.6182268652635
4.046680595790505 8.8962268652635 24.191226865263495
9.2147731347365 17.144226865263498 2.0336805957905
27.928773134736502 14.292319404209504 25.980773134736502
29.8352268652635 24.266226865263498 9.9437731347365
17.8387731347365 11.8412268652635 20.2087731347365
28.1157731347365 2.8082268652634994 13.4877731347365
29.7297731347365 5.0852268652635 12.453773134736501
20.0957731347365 21.3137731347365 2.623773134736501
1.768588056844493 3.911226865263501 19.936680595790506
13.362226865263501 10.1897731347365 21.3977731347365
18.8507731347365 1.5946805957904928 12.1247731347365
20.422773134736502 3.4277731347364995 3.376773134736501
23.363226865263506 5.882680595790504 31.6683194042095
21.917226865263494 28.2263194042095 24.943226865263505
17.2647731347365 10.190226865263504 26.211226865263505
5.3137731347365005 1.0982268652634986 13.919226865263504
12.9987731347365 28.241319404209502 8.603680595790493
15.9467731347365 8.791226865263503 25.632226865263497
18.2637731347365 3.4077731347365 2.0137731347364998
20.439773134736498 8.930319404209502 26.216865673682506
13.842226865263498 11.730226865263496 17.4987731347365
21.1622268652635 23.121226865263502 8.173226865263501
12.423226865263501 4.624680595790494 31.206226865263496
8.7607731347365 2.452226865263505 12.2742268652635
20.8133194042095 7.2827731347365 8.5837731347365
22.243680595790508 5.279680595790495 9.121226865263502
12.3917731347365 0.41477313473649957 4.658226865263501
10.9727731347365 29.0397731347365 13.7477731347365
22.0187731347365 13.318680595790497 4.9047731347365
23.7327731347365 31.897226865263498 1.0632268652634949
19.4097731347365 18.780226865263494 27.3717731347365
10.737226865263501 3.7027731347365 13.264773134736501
29.0327731347365 27.7027731347365 29.1377731347365
23.2177731347365 3.562773134736501 6.9107731347365
15.8487731347365 14.100226865263501 24.0756805957905
16.1047731347365 8.362226865263501 21.808319404209502
19.209226865263496 26.8382268652635 16.123680595790503
29.294773134736502 27.7727731347365 8.205226865263505
25.113226865263506 14.9817731347365 26.8112268652635
22.706226865263496 24.2567731347365 13.8537731347365
19.5427731347365 8.2507731347365 23.4047731347365
26.6562268652635 7.726773134736501 16.1147731347365
17.6173194042095 3.694226865263495 23.3973194042095
31.752226865263502 15.660226865263503 0.2832268652635008
25.1892268652635 17.5557731347365 25.703226865263495
13.5257731347365 7.735680595790498 7.4092268652634985
29.508226865263502 8.9722268652635 0.4482268652635
30.8507731347365 15.836226865263498 13.0687731347365
20.803773134736502 20.361226865263497 30.995226865263497
19.4507731347365 0.9086805957905 13.0477731347365
11.1367731347365 2.3372268652634958 7.6837731347365
10.919226865263504 18.485226865263506 32.1062268652635
32.1412268652635 5.038680595790495 16.141226865263498
17.691226865263495 31.6077731347365 1.5716805957904967
19.1496805957905 16.5557731347365 22.175680595790496
10.613773134736501 13.2807731347365 3.400226865263498
3.424773134736501 5.3617731347365005 24.2607731347365
22.272680595790504 1.5687731347364995 6.6347731347365
29.2567731347365 4.642319404209498 15.5857731347365
27.244226865263506 5.147319404209501 17.182226865263495
3.9017731347364997 1.8797731347364994 20.5433194042095
26.849680595790502 14.787226865263499 1.1802268652634993
22.819226865263495 13.5077731347365 26.2837731347365
19.786226865263494 4.303226865263504 6.4337731347365
13.0552268652635 26.8937731347365 8.629226865263497
1.7196805957904928 27.727226865263496 6.4972268652634995
8.476226865263499 6.783773134736501 21.750226865263507
16.2477731347365 28.794773134736502 10.0097731347365
25.312226865263504 30.799319404209502 6.1952268652635
3.1292268652634974 30.572226865263495 10.2657731347365
6.398226865263503 8.8902268652635 20.6447731347365
28.6037731347365 10.694319404209498 14.1162268652635
21.5617731347365 6.360680595790498 10.5852268652635
20.5267731347365 5.489226865263497 10.0057731347365
20.252226865263502 17.9707731347365 29.745226865263497
18.0197731347365 11.3157731347365 21.2177731347365
26.812773134736503 1.4492268652635047 13.703773134736501
6.688680595790501 11.9517731347365 24.4647731347365
6.1027731347365 4.438226865263495 5.493680595790494
16.916773134736502 2.264773134736501 2.2432268652635017
13.3327731347365 4.1806805957905055 12.749680595790494
29.4727731347365 10.838773134736499 2.8187731347364995
26.1647731347365 0.4612268652634981 16.6547731347365
17.526226865263503 6.623226865263497 22.3353194042095
22.764226865263502 24.9077731347365 1.0142268652635025
10.064134326317514 29.587319404209502 13.110680595790498
26.873773134736503 6.347773134736499 7.324680595790497
6.2572268652634975 11.6282268652635 22.1097731347365
17.4917731347365 6.4512268652635 7.6217731347365
29.775226865263498 1.5157731347365004 16.500226865263507
24.8437731347365 13.0427731347365 27.801226865263494
25.3627731347365 30.6083194042095 5.030773134736501
24.256226865263493 13.1117731347365 27.102226865263496
3.900226865263498 4.0612268652634995 7.7622268652635
17.2977731347365 5.7407731347365 5.9687731347365
2.6802268652634993 23.271226865263493 7.5997731347365
18.4092268652635 7.6677731347365 22.3717731347365
22.6387731347365 23.2737731347365 6.008226865263502
5.132680595790504 0.5187731347365006 21.9236805957905
6.408226865263501 5.0762268652635 25.8287731347365
20.757226865263497 30.7257731347365 3.6547731347365
6.809773134736501 8.370773134736499 22.7987731347365
25.047773134736502 2.171773134736501 15.8292268652635
18.647226865263498 4.3182268652635045 22.5433194042095
18.809226865263504 5.289226865263501 8.3157731347365
20.849226865263496 28.3513194042095 1.0642268652634996
2.8107731347365004 28.694226865263495 9.160319404209499
11.583226865263498 31.0027731347365 5.921226865263499
22.003773134736498 11.7487731347365 21.0177731347365
6.636773134736501 11.1787731347365 28.720680595790498
1.665680595790505 12.929226865263495 0.4202268652635013
26.620226865263497 11.8662268652635 2.0762268652635
12.578226865263495 10.9272268652635 23.7553194042095
26.6527731347365 6.6697731347365 12.5677731347365
6.502680595790494 10.209226865263496 29.499226865263502
14.4357731347365 1.2203194042095014 6.531319404209501
4.3842268652635 3.0256805957905044 0.5492268652634991
4.405226865263501 6.2446805957904985 27.2587731347365
21.776226865263503 29.065773134736503 31.4523194042095
29.021226865263493 19.0882268652635 27.7386805957905
16.1917731347365 25.074226865263505 28.7357731347365
22.2087731347365 31.40468059579051 0.7076805957904924
22.223226865263506 6.126226865263497 25.8897731347365
18.759226865263493 25.4323194042095 2.2597731347365
32.083319404209504 24.1493194042095 8.1707731347365
8.7382268652635 19.2197731347365 14.1797731347365
27.663773134736502 10.3517731347365 3.0942268652635008
11.065226865263504 30.0403194042095 8.418773134736501
5.638680595790504 10.552319404209502 20.6187731347365
14.7656805957905 3.5303194042095036 30.8943194042095
14.5186805957905 25.5327731347365 22.1887731347365
11.858226865263497 5.3696805957904985 10.5767731347365
24.3592268652635 21.008226865263502 28.396226865263493
5.1037731347365 10.1907731347365 20.1196805957905
13.543226865263499 1.2737731347364996 10.4707731347365
0.37622686526349725 15.464680595790497 10.9418656736825
26.2057731347365 15.404226865263503 26.0777731347365
27.0847731347365 0.9452268652634999 17.3112268652635
18.110319404209502 3.8267731347365004 1.2836805957905
30.5957731347365 14.922680595790496 2.3967731347365007
2.417226865263501 14.154226865263503 9.5977731347365
16.934680595790496 29.1387731347365 1.1632268652635034
3.1852268652634947 7.8027731347364995 5.600680595790493
1.2207731347365005 6.5016805957905035 24.8487731347365
25.7192268652635 6.478680595790493 1.877226865263502
18.5306805957905 14.953773134736501 22.610319404209502
4.688226865263495 6.492680595790503 4.793226865263499
31.1127731347365 15.3477731347365 14.8147731347365
26.4477731347365 3.7027731347365 13.2012268652635
31.0773194042095 17.086226865263505 12.235773134736501
3.8457731347365005 29.5917731347365 16.501680595790504
16.7372268652635 4.828680595790502 11.787226865263499
13.953773134736501 10.6723194042095 25.747773134736498
29.5006805957905 2.553680595790496 19.169773134736502
12.6267731347365 28.0793194042095 7.333680595790497
2.4192268652635036 12.0882268652635 27.6077731347365
10.6173194042095 23.398226865263503 8.141680595790504
16.3637731347365 29.0947731347365 3.6637731347365
13.267773134736501 25.352773134736502 10.507226865263497
16.65768059579051 7.6727731347365005 20.035226865263503
0.8296805957904922 8.1282268652635 25.138226865263498
4.7977731347365005 1.575773134736501 5.965226865263496
17.3597731347365 16.322226865263495 20.5797731347365
20.510680595790504 10.292226865263501 22.0217731347365
25.751680595790504 21.1537731347365 29.651226865263503
4.928680595790496 6.9677731347365 1.1482268652635028
31.683319404209502 11.5667731347365 21.709226865263496
31.505226865263502 26.8017731347365 7.2207731347365005
9.6087731347365 29.5343194042095 10.834226865263496
31.422773134736502 6.839226865263498 10.1347731347365
15.1887731347365 31.236226865263497 2.5716805957904967
31.900226865263498 5.455226865263505 12.687680595790496
23.387226865263493 26.062773134736503 32.0577731347365
27.738773134736498 7.5907731347365 12.203773134736501
13.936319404209502 30.2217731347365 14.446134326317505
20.6377731347365 30.2536805957905 10.618226865263502
15.803226865263504 14.206226865263496 27.4857731347365
23.7057731347365 0.7612268652635024 18.984680595790508
26.352226865263496 18.9717731347365 17.1742268652635
21.937226865263504 1.4886805957904983 5.4917731347364995
14.882226865263497 24.250226865263507 22.9057731347365
4.093226865263496 2.4422268652634997 25.3657731347365
10.687226865263504 29.1583194042095 13.063680595790501
22.4977731347365 12.7217731347365 29.9463194042095
30.4247731347365 28.5336805957905 9.200226865263495
17.3907731347365 10.329680595790492 17.887226865263493
20.1467731347365 26.132226865263497 3.4077731347365
13.0032268652635 6.413226865263503 5.551226865263494
7.2302268652634964 7.744226865263499 26.515226865263493
17.038226865263503 17.2727731347365 25.4572268652635
12.401226865263503 7.797226865263504 10.0152268652635
11.5272268652635 15.576319404209503 2.6447731347365
5.868226865263502 7.734226865263501 20.1227731347365
11.461226865263498 17.806226865263504 0.5782268652634954
20.6742268652635 27.7282268652635 24.513226865263498
23.209319404209502 15.9237731347365 21.8947731347365
30.0373194042095 26.3867731347365 7.8382268652635005
22.5533194042095 7.947226865263495 4.851680595790498
30.3348656736825 25.5517731347365 8.583226865263498
30.512226865263493 14.7147731347365 5.097680595790493
21.8227731347365 10.737226865263501 18.9187731347365
13.4077731347365 11.086226865263498 22.1997731347365
25.616773134736498 13.8727731347365 5.6617731347364995
7.9337731347365 5.8017731347365 13.7562268652635
19.2797731347365 11.863773134736501 3.9392268652634996
22.3927731347365 3.839226865263498 0.9432268652635045
26.2813194042095 4.2446805957904985 2.046226865263499
25.795226865263494 2.8857731347364997 0.6062268652635012
24.690226865263504 28.3107731347365 5.964680595790497
23.435226865263495 5.138226865263498 4.0702268652635
20.5053194042095 23.3937731347365 7.847773134736499
11.389773134736501 26.2743194042095 9.519680595790504
7.130226865263502 16.5133194042095 27.4427731347365
18.809226865263504 2.178680595790496 6.9657731347365
18.5797731347365 11.6377731347365 5.988773134736499
21.2372268652635 28.9517731347365 4.749680595790494
17.666773134736502 8.310226865263495 9.9937731347365
25.9417731347365 18.3973194042095 27.268226865263493
27.5797731347365 13.723226865263499 1.3182268652635045
17.629226865263497 6.947773134736501 8.992226865263497
25.936773134736498 12.090226865263496 25.0817731347365
16.812226865263504 11.4266805957905 10.3357731347365
18.2042268652635 2.235226865263499 5.748226865263497
21.611226865263497 30.0713194042095 30.798226865263494
15.5637731347365 12.0792268652635 29.1622268652635
23.471226865263496 15.822226865263495 22.9567731347365
25.1963194042095 19.935226865263495 28.473226865263506
7.003680595790499 9.794680595790496 19.894226865263498
0.04522686526350128 10.253680595790499 23.6017731347365
23.241319404209502 2.418226865263499 31.3773194042095
0.5196805957905042 27.0547731347365 9.6187731347365
22.3747731347365 4.331680595790502 1.6497731347365008
17.9917731347365 22.9937731347365 7.860226865263499
31.1793194042095 29.701680595790506 7.3987731347365
14.2697731347365 22.965226865263496 9.7557731347365
6.137319404209503 4.019680595790504 12.398773134736501
12.6887731347365 16.4577731347365 0.32968059579049225
18.943226865263505 0.9516805957904921 31.3352268652635
11.964680595790497 20.0307731347365 0.812773134736501
15.7977731347365 11.330226865263505 26.989773134736502
13.5937731347365 8.786226865263501 6.865680595790494
17.016226865263498 0.9726805957904929 10.0087731347365
8.9052268652635 3.7192268652635008 24.8322268652635
16.197226865263495 10.286226865263501 20.2117731347365
21.9933194042095 32.116773134736505 30.5762268652635
4.0707731347365 4.0477731347365005 20.4812268652635
26.382226865263497 11.825226865263495 25.0983194042095
1.6396805957904945 15.1537731347365 11.877226865263502
14.591773134736501 9.035226865263503 18.7777731347365
18.0427731347365 14.911226865263501 21.1523194042095
12.652773134736501 0.6496805957904996 30.6843194042095
20.2987731347365 11.802773134736501 20.5837731347365
11.253680595790499 15.1417731347365 1.850680595790493
4.052680595790505 27.884226865263493 31.9283194042095
17.0377731347365 8.0727731347365 25.8407731347365
21.2187731347365 15.145226865263503 20.5067731347365
1.9257731347365006 9.4067731347365 26.4727731347365
26.245773134736503 9.809226865263504 15.8202268652635
3.1787731347365007 15.842226865263498 10.6492268652635
17.079680595790506 11.1462268652635 28.0793194042095
24.002226865263502 11.852226865263496 27.856680595790507
17.1673194042095 23.2083194042095 21.8997731347365
25.550680595790496 13.093319404209499 21.5672268652635
11.148773134736501 1.0006805957904987 8.988773134736501
4.133680595790494 8.8217731347365 3.019226865263498
27.3607731347365 13.5522268652635 2.1646805957905
1.529226865263503 10.4577731347365 22.666773134736502
14.645773134736501 5.720226865263498 5.671773134736501
5.754680595790504 3.5977731347364994 24.9627731347365
8.3367731347365 6.933319404209502 26.113773134736498
10.8907731347365 32.0492268652635 12.8437731347365
26.739773134736502 8.581680595790502 25.524226865263493
15.5182268652635 31.970226865263506 8.715226865263496
30.8867731347365 14.793773134736501 3.229773134736501
5.2867731347364995 0.5417731347365002 0.3192268652634951
2.5102268652634976 7.167226865263501 21.128226865263507
20.8472268652635 15.2447731347365 27.1297731347365
20.28568059579051 15.9107731347365 28.4577731347365
21.5297731347365 6.697226865263495 8.2787731347365
1.7097731347364995 25.5762268652635 10.048226865263501
16.105226865263496 10.441226865263495 0.5262268652635029
24.327226865263505 9.789226865263501 8.529773134736502
4.938226865263495 4.474226865263496 3.2902268652634987
21.151226865263503 27.8022268652635 0.12977313473649943
12.459773134736501 26.205411943155497 9.755226865263502
26.8082268652635 31.9233194042095 19.959226865263496
20.007226865263497 10.452680595790497 4.452680595790497
9.827680595790497 14.2637731347365 2.1567731347365005
29.639319404209502 8.401226865263503 13.745226865263497
3.995226865263497 24.8936805957905 8.2777731347365
27.686773134736498 1.9967731347365003 20.092680595790497
28.058773134736498 24.991226865263506 9.4523194042095
16.3377731347365 10.146319404209503 18.846226865263496
21.2872268652635 17.735226865263506 27.6527731347365
16.41668059579051 3.681773134736501 23.1152268652635
15.0067731347365 10.831226865263496 9.9157731347365
2.2362268652634967 27.4422268652635 31.003773134736498
7.400680595790504 0.995226865263497 13.8703194042095
26.908226865263494 14.867226865263497 26.843226865263496
13.816226865263495 26.9422268652635 8.0683194042095
2.0312268652634984 3.5736805957905062 3.9562268652634955
24.753773134736498 25.940773134736503 0.5262268652635029
31.306773134736503 23.532226865263503 7.9717731347365
30.1742268652635 16.788226865263503 13.1087731347365
20.8322268652635 8.791226865263503 25.187773134736503
15.606226865263501 15.358226865263497 23.8517731347365
7.3047731347365 3.7202268652634984 21.613226865263506
12.723226865263499 24.2827731347365 9.8097731347365
19.549319404209502 19.388226865263498 27.6307731347365
27.739773134736502 21.8627731347365 30.625226865263507
14.4707731347365 13.0997731347365 17.4207731347365
12.002226865263502 30.708226865263505 13.2347731347365
23.252226865263502 16.760226865263498 32.1003194042095
16.6772268652635 9.0396805957905 4.0702268652635
18.931226865263504 6.222226865263501 4.3727731347365
17.7347731347365 12.759680595790499 29.8592268652635
16.176226865263494 5.252319404209498 19.3133194042095
28.6737731347365 14.607680595790498 31.2737731347365
24.604680595790498 15.7207731347365 29.148319404209502
23.2637731347365 14.547226865263504 23.2603194042095
14.790226865263499 30.137226865263493 7.654226865263503
10.313680595790501 23.8767731347365 7.538680595790495
23.614226865263497 14.8197731347365 22.4813194042095
18.151226865263503 25.731680595790507 10.316226865263495
13.252226865263502 6.5867731347365 6.892773134736501
17.0377731347365 20.779319404209502 20.1353194042095
21.8997731347365 25.4163194042095 2.8292268652635
3.878680595790499 11.5727731347365 25.4077731347365
14.608226865263497 4.240226865263502 6.1157731347365
21.091680595790507 29.831680595790502 31.3793194042095
19.3237731347365 3.0926805957904975 4.452680595790497
9.886319404209498 31.5827731347365 5.7502268652635
21.7377731347365 26.2782268652635 2.0246805957904996
31.1447731347365 16.0942268652635 0.9167731347365002
15.703226865263495 26.426226865263494 7.536226865263501
13.330226865263505 9.005680595790494 22.797773134736502
10.168226865263499 16.0257731347365 1.9147731347364996
18.2686805957905 3.0016805957905035 7.817680595790506
6.0032268652635 11.5137731347365 22.935226865263495
22.541773134736502 32.0732268652635 3.1377731347365003
15.093226865263496 3.745773134736501 29.7527731347365
20.8857731347365 16.563226865263495 27.6447731347365
28.8043194042095 14.9327731347365 11.7897731347365
29.8413194042095 14.9542268652635 1.5722268652634952
15.520226865263503 9.3797731347365 9.7027731347365
27.036226865263494 15.799773134736501 3.495773134736501
12.1372268652635 24.503773134736498 9.078226865263495
30.491773134736498 14.789226865263501 11.066680595790501
27.986226865263497 6.860226865263499 4.156226865263498
22.02713432631751 10.879226865263497 24.872319404209502
26.026226865263503 22.864773134736502 13.935226865263495
28.0937731347365 18.250226865263507 28.5713194042095
14.668773134736501 9.941680595790501 6.3427731347365
23.8407731347365 2.8042268652634945 9.403226865263498
3.3232268652635 7.049773134736501 22.309226865263504
27.9787731347365 14.2947731347365 12.703226865263495
17.41668059579051 28.107226865263506 10.1037731347365
29.3327731347365 14.708680595790497 6.534773134736501
17.492226865263497 24.360226865263506 23.1497731347365
14.841773134736501 23.6197731347365 6.5097731347365
21.563226865263495 18.9487731347365 27.0717731347365
0.9946805957904985 5.6927731347365 14.0037731347365
1.8822268652634975 2.641226865263498 20.9452268652635
19.701680595790506 17.4092268652635 23.0527731347365
0.3743194042094977 24.6397731347365 15.7267731347365
6.9067731347365005 8.721226865263496 25.297773134736502
12.313226865263495 1.4006805957905044 9.846226865263496
17.1327731347365 5.662773134736501 23.8097731347365
25.6717731347365 2.5186805957904994 13.415680595790505
15.453319404209498 30.5653194042095 9.907226865263503
6.525226865263498 20.2883194042095 13.509680595790499
27.626226865263497 16.4577731347365 28.224773134736502
4.0002268652635 9.3052268652635 26.632680595790504
15.639680595790495 13.489680595790503 16.6737731347365
29.6517731347365 24.5672268652635 7.647226865263498
28.485319404209502 0.7536805957904988 13.6657731347365
15.5977731347365 2.3757731347365 4.470680595790498
24.3347731347365 9.2697731347365 13.2757731347365
25.3142268652635 6.0487731347365 16.1097731347365
26.3383194042095 2.725680595790493 4.977226865263496
20.004226865263497 6.665226865263499 21.4327731347365
23.5097731347365 26.0847731347365 24.2102268652635
23.643226865263493 10.468226865263496 19.4537731347365
3.7572268652634975 5.344773134736501 7.7746805957905
16.5737731347365 2.9416805957905012 6.196680595790497
1.7607731347364997 10.221226865263496 24.244226865263506
18.2313194042095 24.6853194042095 8.895226865263503
26.684226865263504 7.5167731347365 12.4647731347365
24.348226865263506 5.109680595790493 31.425773134736502
29.791773134736502 6.913226865263503 11.1297731347365
23.325226865263495 6.535680595790495 6.597226865263501
21.205226865263505 17.699226865263505 25.5697731347365
21.068226865263505 9.618226865263502 19.579680595790506
24.7617731347365 7.575226865263495 1.205226865263505
27.2137731347365 15.871226865263502 2.715680595790502
18.6862268652635 14.0477731347365 26.532319404209503
22.0462268652635 30.3503194042095 0.32022686526349986
16.102773134736502 11.933773134736501 21.0372268652635
22.767226865263503 25.4567731347365 7.1997731347365
27.093226865263496 21.305680595790506 31.3213194042095
19.1497731347365 27.5077731347365 7.948680595790506
22.042226865263494 29.4223194042095 6.879773134736499
25.5307731347365 11.193680595790497 7.6667731347365
15.547226865263504 4.2603194042095005 23.0787731347365
2.641226865263498 7.169226865263504 26.6562268652635
13.789226865263501 6.437773134736501 14.504226865263497
20.8293194042095 8.719680595790493 2.705226865263505
21.6736805957905 12.6257731347365 30.2583194042095
28.2803194042095 0.14577313473649944 18.9317731347365
21.3477731347365 14.424773134736501 19.346226865263496
0.4882268652634991 10.607226865263499 12.448680595790506
2.572226865263495 13.407226865263503 28.0727731347365
5.9632268652635005 7.286226865263501 25.370226865263497
20.300773134736502 5.7072268652635 31.9313194042095
18.840226865263496 13.305319404209502 20.248226865263497
28.4572268652635 18.464226865263505 10.1297731347365
1.9032268652634983 6.4427731347365 24.9907731347365
4.3696805957904985 8.511226865263502 24.3503194042095
5.850226865263501 8.4467731347365 20.6982268652635
12.834773134736501 5.271773134736501 15.251773134736501
7.968226865263496 29.2137731347365 11.0987731347365
18.0777731347365 16.2787731347365 19.7017731347365
11.933773134736501 13.707319404209503 4.325773134736501
14.792226865263501 11.694226865263495 0.3882268652634977
23.003226865263507 6.847773134736499 25.434773134736503
19.176226865263494 25.3517731347365 28.0893194042095
24.089226865263505 4.378319404209503 7.964226865263498
30.3532268652635 28.751226865263497 28.8987731347365
30.689773134736498 23.4827731347365 7.5457731347365
25.6903194042095 5.159773134736501 12.839680595790497
12.5687731347365 5.4206805957905 30.587319404209502
17.401226865263503 6.7117731347365 21.189773134736498
29.5363194042095 15.767226865263503 13.3887731347365
31.93395821262851 6.962680595790502 14.127226865263502
20.851680595790498 0.19468059579050134 0.7332268652634966
0.6326805957905037 8.4362268652635 10.2412268652635
6.2347731347365 2.964226865263498 4.6862268652634995
31.296319404209502 13.964680595790497 31.7843194042095
28.7613194042095 9.7682268652635 14.9602268652635
7.9627731347365 5.075226865263495 14.6917731347365
8.0612268652635 3.0871343263175106 14.725226865263501
13.5537731347365 19.3172268652635 1.9776805957905026
15.635680595790504 6.346226865263496 22.772226865263498
2.042226865263501 5.161226865263501 21.989226865263497
27.4847731347365 9.0882268652635 2.5682268652635045
19.795226865263494 4.4297731347365 4.8307731347365
23.4613194042095 8.824226865263505 5.786226865263501
29.0127731347365 2.3466805957905024 13.641226865263498
29.8043194042095 7.559226865263504 14.190680595790496
19.9677731347365 24.3957731347365 7.3262268652635
29.0023194042095 1.9772268652634963 15.028226865263498
29.1447731347365 3.5677731347365 15.3047731347365
0.9922268652634969 27.491773134736498 9.5977731347365
20.9557731347365 2.3452268652634984 9.450226865263495
26.1772268652635 14.5037731347365 22.5732268652635
21.0157731347365 9.759680595790499 0.9172268652635012
21.1832268652635 13.7162268652635 19.471226865263496
16.471226865263496 7.437226865263504 22.7053194042095
18.345226865263506 11.7507731347365 28.735226865263506
27.9903194042095 14.9942268652635 11.426226865263494
32.0147731347365 14.9487731347365 10.0302268652635
6.7687731347365006 31.626226865263497 12.831226865263496
16.413773134736502 21.574226865263505 24.2817731347365
25.8217731347365 28.815226865263504 3.793680595790505
26.0277731347365 5.3782268652635 18.147226865263498
21.1413194042095 9.4387731347365 6.700226865263495
21.413773134736502 7.969773134736501 25.095226865263506
30.0473194042095 19.624226865263502 29.5167731347365
19.835680595790507 16.0597731347365 23.873226865263497
22.575319404209502 17.604226865263506 9.950226865263495
24.587319404209502 1.9307731347364996 16.3957731347365
10.4662268652635 16.8277731347365 2.486680595790503
28.6797731347365 28.285226865263503 7.0637731347365005
4.7646805957904945 9.8267731347365 18.590226865263496
3.2272268652634963 1.6627731347365007 21.108773134736502
14.9167731347365 7.371226865263502 24.4272268652635
18.505226865263502 12.601226865263499 6.711226865263498
24.6707731347365 5.4406805957904965 8.1727731347365
29.3803194042095 4.785226865263503 11.062226865263504
20.4477731347365 11.5972268652635 5.3992268652635005
9.877226865263502 19.2633194042095 2.2042268652635
2.8007731347365006 6.713773134736501 20.4422268652635
13.255226865263502 18.1617731347365 0.11668059579049839
27.2222268652635 30.500226865263507 18.862680595790508
14.1327731347365 7.910226865263503 12.477226865263496
18.595226865263506 12.7532268652635 25.1337731347365
25.6427731347365 12.842226865263498 25.5987731347365
14.441680595790501 15.9237731347365 25.4437731347365
17.877226865263502 5.925226865263504 2.8087731347364997
15.6383194042095 29.890226865263493 2.120226865263497
20.496680595790508 6.145226865263503 2.6372268652635
12.479226865263499 31.2737731347365 5.379773134736499
4.292226865263501 25.052773134736498 30.3453194042095
23.547226865263504 6.418226865263499 7.2127731347365
14.0987731347365 12.0317731347365 25.1077731347365
21.5612268652635 29.657226865263503 23.9817731347365
30.3237731347365 14.013680595790504 31.4332268652635
3.202226865263505 9.803226865263504 27.50568059579051
22.189319404209503 23.4737731347365 7.127226865263502
18.006226865263493 2.4052268652635007 23.7497731347365
24.329680595790506 10.7607731347365 25.4413194042095
21.509226865263493 6.388226865263498 31.989773134736502
13.4357731347365 19.3037731347365 2.681680595790496
24.125226865263507 0.6577731347364999 20.4476805957905
24.9032268652635 15.544226865263504 30.032226865263503
24.6647731347365 6.252680595790494 7.6317731347365
3.5396805957905 24.8412268652635 1.7822268652635032
18.0177731347365 6.9147731347365 1.2882268652635034
13.5427731347365 31.0453194042095 12.9296805957905
5.2682268652635 7.2642268652635025 25.019226865263498
0.9122268652634986 6.6667731347365 12.526226865263503
31.7782268652635 3.6012268652634987 13.178226865263504
8.129226865263497 5.744226865263499 24.5807731347365
17.866226865263506 3.7546805957905036 0.40122686526350293
21.4773194042095 23.9803194042095 8.129226865263497
7.5957731347365005 17.5087731347365 15.7987731347365
17.4867731347365 5.7477731347365 11.8692268652635
4.266226865263498 9.624226865263502 3.529226865263503
8.2337731347365 7.2597731347365 28.017226865263503
30.161226865263494 7.5447731347365 13.296773134736501
18.817680595790506 6.677226865263499 24.285226865263503
28.5513194042095 30.559773134736503 10.242680595790503
12.3747731347365 28.0197731347365 8.037226865263499
23.2313194042095 8.799226865263499 7.094680595790493
13.6557731347365 25.7377731347365 8.087680595790502
12.5427731347365 6.447226865263495 11.424226865263499
15.7927731347365 14.953773134736501 18.2437731347365
15.923226865263494 22.0177731347365 25.8643194042095
13.6162268652635 19.881226865263493 1.0697731347365007
20.950319404209502 24.0893194042095 6.283226865263501
16.4842268652635 7.0517731347365 23.285773134736502
23.1243194042095 32.0977731347365 16.965226865263496
24.4763194042095 10.767226865263503 26.202226865263505
10.485773134736501 4.3722268652634995 7.8932268652635
21.699226865263505 10.900680595790504 3.317680595790506
16.1627731347365 24.658226865263494 27.0197731347365
20.6507731347365 5.731226865263501 18.8317731347365
16.218680595790502 25.470226865263506 27.9482268652635
14.105226865263496 23.0707731347365 10.511226865263502
31.2407731347365 16.298226865263494 2.8977731347365
19.3267731347365 4.4777731347365 3.3116805957905058
26.4607731347365 15.089680595790497 1.978226865263501
31.113226865263506 10.3907731347365 14.1577731347365
23.3382268652635 13.5642268652635 24.751226865263497
18.033226865263494 9.922680595790496 26.0277731347365
19.8407731347365 30.5703194042095 11.378680595790499
18.970226865263506 9.5977731347365 22.892226865263503
20.9907731347365 27.367226865263497 25.651226865263503
3.6187731347365 24.126773134736503 30.4017731347365
1.8422268652634983 26.1643194042095 6.3932268652635
21.190226865263504 14.4917731347365 26.8817731347365
23.5433194042095 16.9177731347365 5.3027731347364995
19.4347731347365 9.272226865263498 18.033226865263494
17.0517731347365 1.6592268652634985 14.418773134736501
19.3617731347365 12.435680595790501 6.5032268652635
27.144226865263498 13.2836805957905 6.620773134736501
20.789226865263494 27.684773134736503 1.3722268652634995
14.021319404209503 12.3117731347365 25.8943194042095
12.9942268652635 9.6937731347365 19.1613194042095
28.259226865263493 3.4512268652635 16.2962268652635
21.4567731347365 17.7997731347365 11.721226865263496
9.541226865263503 1.5416805957904955 13.520773134736501
13.492226865263497 30.300226865263504 11.7472268652635
15.6377731347365 8.557226865263495 11.7307731347365
4.201680595790492 10.781226865263498 21.7872268652635
18.452226865263505 26.9447731347365 12.235226865263499
1.5002268652634996 9.337226865263496 11.130680595790494
23.6122268652635 5.4482268652635 23.1657731347365
16.672680595790496 30.3547731347365 2.3327731347365006
13.1797731347365 8.367680595790503 9.639319404209498
27.241773134736498 11.088680595790493 25.127226865263502
0.5902268652634959 8.598680595790498 13.802680595790505
18.4697731347365 15.139773134736501 18.7997731347365
25.9223194042095 18.851226865263506 17.102226865263496
19.998226865263497 4.562680595790496 7.0847731347364995
24.5663194042095 10.715226865263496 27.171319404209502
29.950226865263495 11.427680595790505 3.0402268652634987
4.6347731347365 30.3477731347365 16.00568059579051
