31.8022268652635 25.244319404209502 25.3597731347365
8.2192268652635 16.3117731347365 31.4087731347365
30.035773134736502 13.8842268652635 31.286226865263494
21.1017731347365 5.591773134736501 18.328226865263495
22.9703194042095 8.4722268652635 27.837319404209502
24.9253194042095 11.0857731347365 28.9637731347365
25.2637731347365 25.189773134736498 30.7407731347365
8.313680595790501 14.3842268652635 31.500773134736498
20.0777731347365 20.872226865263507 14.412226865263499
23.6217731347365 18.1256805957905 9.4457731347365
21.864226865263497 15.299773134736501 4.691773134736501
6.5212268652635 17.647226865263498 6.5417731347365
0.5452268652635013 11.2237731347365 7.4487731347365
13.832319404209503 18.0017731347365 27.4603194042095
2.347226865263501 18.3487731347365 2.8826805957905037
21.500226865263507 18.831319404209502 7.729226865263499
22.7853194042095 15.717319404209501 2.9997731347365004
10.791226865263503 14.577226865263505 14.9487731347365
19.6627731347365 29.4753194042095 10.6067731347365
2.7886805957904954 0.44622686526350464 13.299226865263499
17.0397731347365 10.145773134736501 20.642319404209502
31.014226865263502 25.511226865263502 28.267226865263503
17.1182268652635 5.538226865263503 2.121680595790494
16.163226865263503 19.8447731347365 19.471226865263496
9.9572268652635 29.044226865263504 0.14622686526350037
3.510680595790504 19.810226865263495 1.211226865263498
4.6857731347365 22.857226865263506 27.392319404209502
14.0107731347365 3.7456805957905033 12.080226865263505
14.3407731347365 6.839226865263498 30.3307731347365
30.113319404209502 32.0527731347365 1.9006805957905044
23.6437731347365 16.063226865263495 24.855773134736502
16.4752268652635 8.806680595790496 20.822226865263495
6.700773134736501 17.9737731347365 16.5237731347365
13.4587731347365 8.322226865263495 31.285226865263503
28.190773134736503 14.6767731347365 13.884319404209503
23.9317731347365 16.9517731347365 3.4207731347365
12.930773134736501 30.7987731347365 31.1093194042095
0.1406805957904993 24.9032268652635 29.764319404209502
17.378226865263507 17.9597731347365 30.5157731347365
20.8082268652635 7.824226865263505 10.428226865263504
15.7367731347365 19.033226865263494 21.8157731347365
24.0567731347365 27.0947731347365 26.251773134736503
22.619226865263506 26.6277731347365 3.908226865263501
19.443226865263505 29.3997731347365 5.631680595790499
12.6892268652635 30.211226865263505 25.5727731347365
19.369319404209502 0.8722268652634995 23.727773134736502
23.9272268652635 25.5487731347365 23.3613194042095
20.3707731347365 29.2343194042095 5.4026805957905
11.685226865263495 24.069226865263495 8.688680595790501
21.134226865263493 20.2513194042095 15.515319404209503
3.692680595790506 8.288680595790495 27.5133194042095
9.3812268652635 30.448865673682505 20.185226865263495
3.0792268652635 10.7896805957905 7.527773134736501
16.038226865263503 9.364680595790503 28.971319404209503
24.2223194042095 0.34377313473649984 18.081226865263496
1.7477731347364998 15.7507731347365 18.560226865263495
4.5142268652635025 13.001226865263497 1.5617731347364998
31.866773134736498 27.107319404209502 32.0267731347365
3.1757731347365006 20.157226865263503 4.6982268652635
24.7227731347365 8.386680595790494 12.8022268652635
11.031226865263498 18.622226865263507 27.523319404209502
28.616226865263506 6.736226865263497 32.0557731347365
9.720226865263498 11.062226865263504 22.441226865263495
3.397226865263498 17.922226865263504 5.353226865263501
27.2913194042095 12.818226865263505 23.174865673682504
17.159680595790505 10.388226865263498 31.003319404209503
26.069226865263495 26.910773134736502 27.997226865263507
12.0857731347365 1.1777731347364995 16.285773134736502
26.060226865263495 28.0707731347365 30.3247731347365
6.203226865263495 2.0652268652635044 19.767226865263503
11.120773134736499 28.4697731347365 16.7437731347365
13.0927731347365 3.9392268652634996 7.647680595790504
19.4857731347365 16.857226865263506 13.0582268652635
14.9677731347365 13.0217731347365 17.820680595790506
25.8622268652635 21.6497731347365 23.791226865263503
27.429226865263495 12.6907731347365 22.4767731347365
17.191226865263495 26.491319404209502 5.8407731347365
6.6402268652635 12.746226865263502 4.0412268652635035
26.771226865263493 1.8666805957904984 14.584226865263496
16.4872268652635 18.7987731347365 8.3357731347365
28.722680595790507 7.048865673682499 3.7166805957904927
7.520226865263503 26.9087731347365 16.6727731347365
10.1617731347365 2.168226865263499 20.473226865263506
29.6337731347365 5.345680595790498 30.857226865263506
19.7997731347365 0.565134326317505 24.6677731347365
17.8227731347365 5.0157731347365 7.6873194042095
22.8967731347365 29.7282268652635 25.7252268652635
14.391226865263498 19.858226865263497 27.0787731347365
22.3643194042095 14.105226865263496 28.5333194042095
27.4877731347365 8.295226865263501 30.5717731347365
24.9523194042095 15.838319404209503 23.294865673682494
25.643226865263493 20.1937731347365 29.4062268652635
30.342226865263505 21.997226865263507 5.4847731347365
11.9097731347365 29.744226865263506 23.9362268652635
23.085680595790507 19.0833194042095 5.2372268652635015
3.2012268652635 14.4577731347365 7.1122268652635015
12.2532268652635 29.2983194042095 20.8106805957905
24.007226865263497 14.395773134736501 5.394226865263498
16.7577731347365 9.870226865263497 22.095226865263506
7.457773134736501 1.3086805957905057 13.8977731347365
10.9332268652635 22.137226865263493 21.212226865263496
21.8382268652635 26.182226865263495 23.3677731347365
15.764226865263502 21.739680595790503 22.193226865263505
15.725226865263501 25.5047731347365 20.5402268652635
5.231226865263501 24.6503194042095 25.927773134736498
31.1017731347365 14.675680595790496 4.711226865263498
30.4577731347365 9.5037731347365 30.4477731347365
27.3797731347365 22.7287731347365 23.610319404209502
27.1973194042095 0.8407731347364997 18.0727731347365
4.302226865263499 18.053226865263504 29.9323194042095
28.0432268652635 3.2816805957905046 1.8232268652635
0.5937731347364998 12.950773134736501 10.4177731347365
13.170226865263501 21.931226865263504 27.553773134736502
31.514319404209502 1.0722268652634952 27.370773134736503
23.6007731347365 10.3527731347365 0.4776805957905026
21.9572268652635 18.9077731347365 6.115680595790494
15.901226865263503 10.951680595790492 1.3222268652634952
24.7547731347365 13.565226865263504 28.246226865263502
27.834226865263496 13.0227731347365 29.3957731347365
6.876226865263497 32.059226865263504 20.517226865263503
18.229226865263506 10.752680595790494 20.6862268652635
18.2077731347365 5.310226865263495 31.170226865263494
25.9812268652635 12.9392268652635 31.114773134736502
12.950226865263495 19.631226865263493 30.258226865263502
11.882226865263497 11.376226865263497 10.5332268652635
27.2132268652635 7.5837731347365 28.0897731347365
19.3317731347365 2.5072268652634975 3.6602268652635033
20.5546805957905 19.3237731347365 7.8667731347364995
10.010680595790504 28.866319404209502 2.2076805957904924
13.3052268652635 24.440773134736503 31.635226865263498
13.0642268652635 24.604680595790498 8.870773134736499
2.1266805957905035 4.785226865263503 27.3153194042095
5.642773134736501 29.776319404209502 18.152226865263493
2.714226865263498 21.6357731347365 20.2037731347365
1.580226865263505 19.7187731347365 6.3597731347365
8.479134326317507 30.803773134736502 23.428226865263504
18.3247731347365 18.144226865263498 8.416226865263503
25.4457731347365 3.540680595790505 30.346226865263496
23.3367731347365 1.9092268652634985 15.987319404209504
18.471226865263496 17.227226865263496 6.413319404209499
28.7357731347365 2.6342268652635 20.9297731347365
25.7617731347365 5.5852268652635 15.7072268652635
26.9443194042095 3.6722268652635037 5.175226865263504
23.8327731347365 25.5403194042095 30.4332268652635
5.288680595790495 23.372226865263507 26.879226865263497
2.0716805957904967 10.735773134736501 28.5577731347365
6.671773134736501 31.200226865263495 18.6567731347365
24.0727731347365 23.8677731347365 15.892226865263503
16.020226865263503 30.0972268652635 0.01868059579049941
11.545226865263501 18.297226865263504 29.489773134736502
24.6427731347365 4.8722268652634995 2.580680595790497
23.030226865263494 4.8687731347365 11.149773134736499
0.8723194042095024 12.083319404209501 16.849773134736502
23.2727731347365 24.9183194042095 26.544773134736502
22.6447731347365 13.9327731347365 19.4737731347365
27.5457731347365 2.641680595790504 17.1467731347365
11.141226865263498 28.988226865263506 30.413226865263503
31.616773134736498 4.248226865263497 1.539226865263501
31.398226865263503 25.8747731347365 30.680773134736498
13.468226865263496 32.1507731347365 16.978680595790507
1.482226865263499 7.505226865263502 1.1162268652634992
23.2953194042095 24.3713194042095 16.266226865263498
30.090319404209502 12.672226865263504 4.315226865263504
29.791773134736502 2.120773134736501 18.376226865263497
24.1097731347365 30.2027731347365 24.8597731347365
19.7252268652635 19.0147731347365 15.3387731347365
16.1847731347365 18.608773134736502 28.9327731347365
0.9601343263175153 5.418226865263499 31.368865673682507
29.0757731347365 8.411226865263501 1.2337731347365004
1.6792268652634945 27.1182268652635 17.2873194042095
29.369226865263506 2.755226865263502 3.7127731347364996
25.495226865263497 14.072680595790501 27.8417731347365
11.7072268652635 0.18122686526350407 16.665680595790505
2.8722268652634995 10.8962268652635 29.3107731347365
4.532680595790495 30.641226865263498 3.431773134736501
22.8593194042095 13.647226865263498 20.591680595790507
5.1727731347365005 1.8017731347365 1.4902268652635016
28.753226865263507 15.453226865263495 23.706226865263496
16.280226865263494 10.464680595790497 23.3202268652635
22.8637731347365 7.366226865263499 4.1432268652635
5.966226865263501 8.587226865263496 25.797773134736502
26.6553194042095 11.418773134736501 0.9796805957904979
22.6927731347365 14.538226865263503 7.085773134736501
8.047226865263504 18.602773134736502 18.9583194042095
22.9067731347365 21.865680595790508 16.400226865263498
9.6887731347365 20.6957731347365 25.5117731347365
16.771226865263493 10.807226865263495 0.4127731347365007
28.998773134736503 15.6947731347365 12.565226865263504
24.4662268652635 8.043680595790505 28.3726805957905
13.7627731347365 19.1152268652635 25.7677731347365
17.9767731347365 3.3582268652634966 1.8812268652634998
30.750773134736498 2.165773134736501 3.485680595790498
29.8457731347365 31.8203194042095 2.6392268652635025
2.5896805957904974 5.9337731347365 29.6507731347365
28.738773134736498 22.3733194042095 27.0227731347365
23.4063194042095 16.3057731347365 7.212226865263496
12.5057731347365 19.1407731347365 30.375226865263507
10.0547731347365 18.661226865263494 9.540226865263499
5.453773134736501 2.2166805957904927 20.544680595790496
25.947226865263495 11.8077731347365 29.3382268652635
9.644226865263498 2.7247731347365 14.3902268652635
29.040680595790505 15.413226865263503 11.958680595790497
12.882226865263497 29.224226865263496 19.9542268652635
22.2147731347365 7.1677731347365 3.5397731347364996
24.333226865263505 20.288773134736502 12.2727731347365
15.1342268652635 10.6117731347365 17.943226865263505
27.6917731347365 15.2442268652635 28.7133194042095
11.6067731347365 28.3607731347365 9.9146805957905
12.6753194042095 29.8258656736825 21.8857731347365
16.7333194042095 7.605319404209499 12.171319404209502
8.860773134736501 18.294226865263504 20.470226865263506
30.5113194042095 8.6627731347365 32.1747731347365
27.876773134736503 26.828226865263495 30.1567731347365
19.7932268652635 27.9537731347365 5.299226865263499
25.625226865263507 20.840319404209502 23.0402268652635
18.227226865263496 24.8623194042095 5.157226865263503
27.9477731347365 13.5017731347365 29.1533194042095
31.689773134736498 23.140226865263493 26.878319404209503
23.980773134736502 21.3227731347365 31.2197731347365
24.9092268652635 29.8017731347365 27.640226865263493
29.0402268652635 28.849773134736502 30.177319404209502
2.482773134736501 11.8142268652635 29.177773134736498
16.41668059579051 3.2902268652634987 31.2113194042095
29.6293194042095 11.504226865263497 8.138226865263498
12.8297731347365 16.6167731347365 29.4983194042095
3.1522268652635006 13.8147731347365 5.9467731347365
29.541226865263503 4.3587731347365 28.8877731347365
24.809226865263504 14.8227731347365 29.6657731347365
25.9687731347365 4.261226865263502 0.13222686526349747
20.8957731347365 27.430319404209502 25.049319404209502
29.416773134736502 15.498773134736501 17.862680595790508
21.3352268652635 16.7197731347365 10.2222268652635
6.783226865263501 11.770226865263503 1.7987731347365
27.395319404209502 11.107226865263499 21.8457731347365
16.1137731347365 24.9323194042095 19.4857731347365
3.753680595790499 31.0697731347365 17.681226865263504
7.328226865263495 11.047226865263504 2.4017731347364997
24.124226865263502 6.383226865263502 0.9152268652634987
31.616773134736498 7.053680595790496 30.9093194042095
28.792226865263494 21.580226865263505 5.2767731347365
16.3052268652635 18.7757731347365 22.964680595790497
6.0317731347365005 0.5812268652634955 13.357773134736501
25.018226865263493 26.518226865263493 27.764226865263502
26.6007731347365 18.080226865263505 5.2437731347365
18.193226865263505 22.974226865263496 2.4447731347365007
20.8357731347365 14.373226865263497 30.9057731347365
30.180773134736498 9.2347731347365 30.976226865263506
30.394226865263498 22.5017731347365 27.0497731347365
16.7372268652635 22.571226865263505 18.3397731347365
6.551680595790501 15.462226865263496 1.1827731347365003
29.861773134736502 12.829680595790492 13.8677731347365
26.0147731347365 22.3202268652635 27.9627731347365
24.587226865263496 9.160226865263503 28.941226865263495
27.5097731347365 16.3142268652635 26.5837731347365
29.294226865263504 26.6873194042095 28.0943194042095
29.3263194042095 3.161226865263501 22.2067731347365
16.081226865263496 8.299226865263499 0.08368059579049714
26.4787731347365 11.095680595790498 22.5683194042095
30.8477731347365 7.0152268652635 29.202226865263505
15.2442268652635 3.969773134736501 31.2147731347365
21.491319404209502 15.447226865263495 25.9903194042095
13.9392268652635 22.2012268652635 31.7137731347365
2.8497731347365 8.0007731347365 26.9417731347365
5.493680595790494 16.237319404209504 31.372773134736498
25.190773134736503 7.7926805957905 15.984226865263501
9.1267731347365 21.3327731347365 24.5942268652635
14.228319404209504 1.7382268652634991 19.021226865263493
29.757680595790504 22.967226865263505 5.8812268652635
16.0497731347365 22.3077731347365 26.8607731347365
18.077226865263505 16.2477731347365 10.815226865263504
17.777226865263493 24.5372268652635 20.145226865263503
25.525226865263498 1.853226865263501 0.23277313473650096
18.922773134736502 18.119226865263506 11.5563194042095
15.7603194042095 18.2222268652635 26.1683194042095
13.0357731347365 23.181226865263504 22.022226865263498
17.245226865263497 20.592226865263505 26.1092268652635
12.607773134736501 7.367226865263497 0.8632268652634991
1.0442268652635036 18.1553194042095 4.479226865263499
3.939680595790506 1.6532268652634983 13.597680595790493
0.1303194042094944 13.6157731347365 6.851226865263499
12.213319404209503 18.206226865263496 24.5437731347365
18.516226865263498 4.104226865263499 3.1496805957904996
30.416226865263503 3.8522268652634963 1.8296805957904922
24.736773134736502 27.5633194042095 24.494773134736498
27.1017731347365 2.2437731347365 28.902226865263493
10.6132268652635 26.1917731347365 9.318226865263505
27.7842268652635 10.168226865263499 28.0047731347365
18.7836805957905 25.5623194042095 4.788680595790495
24.611680595790503 22.376134326317512 28.642226865263503
11.764226865263502 1.6057731347365003 20.3816805957905
14.273680595790495 11.463773134736499 27.2626805957905
22.3197731347365 25.696226865263505 4.001226865263497
25.051226865263494 17.0077731347365 2.8792268652634974
28.6123194042095 12.543226865263499 23.1853194042095
0.9867731347365005 14.1162268652635 25.8333194042095
20.461226865263505 2.8883194042095006 25.089226865263505
21.2067731347365 14.3232268652635 24.4767731347365
26.206226865263496 23.0057731347365 28.1682268652635
4.5137731347365 1.299319404209502 21.605226865263496
17.8267731347365 22.5063194042095 12.043773134736501
18.9317731347365 21.636226865263502 24.428226865263504
26.0756805957905 27.1367731347365 8.8497731347365
15.8697731347365 16.482680595790498 26.157319404209503
8.4287731347365 19.1997731347365 22.6377731347365
24.4127731347365 5.902226865263501 24.010226865263498
26.4242268652635 18.7127731347365 2.542226865263501
18.0837731347365 5.2567731347365 32.1523194042095
20.9727731347365 17.228680595790507 12.2717731347365
24.8467731347365 18.8592268652635 6.7573194042095
16.600411943155493 17.8987731347365 25.8413194042095
20.791773134736502 12.989226865263497 3.742226865263497
21.8003194042095 15.5557731347365 10.1633194042095
21.3997731347365 12.995226865263497 6.930226865263499
6.4867731347365005 11.7107731347365 3.7172268652634983
17.093226865263496 22.583680595790497 21.8063194042095
22.9763194042095 1.3507731347364995 17.903680595790505
9.3872268652635 29.3473194042095 21.6153194042095
2.3507731347364995 19.535226865263503 4.881319404209503
26.6473194042095 14.580680595790497 15.5617731347365
10.1887731347365 25.6347731347365 9.8397731347365
3.431226865263504 29.370773134736503 14.9207731347365
2.337680595790502 11.208226865263498 6.815773134736501
10.0727731347365 12.9357731347365 1.8707731347365009
15.4137731347365 10.136226865263502 30.503319404209503
31.7173194042095 7.6517731347365 29.9313194042095
16.274226865263493 18.51768059579051 21.9757731347365
26.2787731347365 20.4602268652635 29.402226865263493
30.462226865263496 24.7067731347365 28.5833194042095
1.1777731347364995 14.2747731347365 24.643226865263493
15.706226865263496 9.842680595790497 18.1357731347365
16.7977731347365 8.2957731347365 20.003226865263507
17.014226865263502 21.3347731347365 22.5567731347365
14.706319404209498 30.291226865263503 23.5822268652635
27.607680595790498 27.276319404209502 23.447226865263495
26.5817731347365 3.4246805957905053 17.7782268652635
23.977773134736502 12.049226865263499 31.6853194042095
28.413226865263503 22.503773134736498 28.9743194042095
4.597226865263501 3.7542268652634974 18.530226865263494
29.651226865263503 16.7077731347365 25.5977731347365
11.650226865263498 9.563226865263495 10.362680595790493
32.0972268652635 6.3872268652635 31.367226865263497
24.8907731347365 6.300773134736501 17.9027731347365
30.0623194042095 12.9317731347365 4.905226865263501
9.008226865263502 14.767773134736501 4.631319404209503
29.120773134736503 9.107773134736501 9.971226865263496
26.1967731347365 27.7287731347365 19.6747731347365
23.3833194042095 10.2947731347365 21.9367731347365
20.7757731347365 23.1413194042095 4.927226865263499
1.2122268652634958 14.173226865263501 15.7187731347365
0.18668059579050578 27.0167731347365 29.780226865263494
27.377226865263502 14.775226865263498 25.3613194042095
25.7893194042095 3.2917731347365002 15.6807731347365
19.7427731347365 3.5582268652634994 16.6622268652635
7.4207731347365 26.8327731347365 17.6727731347365
21.486773134736502 14.678680595790496 31.6327731347365
24.1987731347365 30.498773134736503 25.3777731347365
32.0882268652635 4.7072268652635 2.8046805957905008
22.8177731347365 2.0797731347365005 17.3577731347365
0.37168059579049384 27.1703194042095 30.6627731347365
26.6313194042095 13.9667731347365 30.642226865263503
15.9227731347365 22.296680595790505 10.770773134736501
5.283226865263501 16.0187731347365 3.769226865263498
18.440226865263504 8.071226865263505 20.8427731347365
21.9647731347365 15.026226865263503 26.7897731347365
13.7407731347365 19.042226865263494 29.9893194042095
9.9707731347365 17.544773134736502 22.124226865263502
15.0867731347365 12.355680595790503 29.276226865263503
28.1592268652635 27.564773134736498 26.6427731347365
28.5927731347365 5.709226865263496 15.0762268652635
1.9257731347365006 13.831226865263496 5.864773134736501
20.654226865263503 30.3543194042095 2.8726805957904986
5.069680595790501 2.2376805957904935 16.6787731347365
28.3837731347365 5.221226865263496 15.7207731347365
24.3817731347365 8.821680595790497 22.9097731347365
21.324680595790497 25.9833194042095 30.239773134736502
0.1242268652635019 11.5417731347365 27.3537731347365
31.8777731347365 14.2467731347365 29.3883194042095
3.639773134736501 21.256226865263493 3.7602268652634976
21.688226865263495 22.6277731347365 15.3437731347365
29.3877731347365 11.6522268652635 23.4332268652635
23.8857731347365 19.845865673682496 8.4617731347365
16.852226865263496 20.9782268652635 20.813226865263495
3.6332268652635022 31.0577731347365 16.4817731347365
7.9876805957904935 15.6447731347365 31.8687731347365
14.044226865263504 3.7712268652635004 31.536226865263494
11.885680595790504 3.9486805957905062 24.436773134736498
25.962319404209502 26.122865673682497 27.9662268652635
16.5747731347365 10.941680595790501 20.614773134736502
21.417226865263494 19.4872268652635 13.5627731347365
8.923226865263501 2.2602268652634976 25.7007731347365
31.9297731347365 25.717226865263505 24.8797731347365
26.802773134736498 12.5882268652635 0.5227731347365001
30.6827731347365 23.727773134736502 24.9572268652635
23.649226865263493 5.184226865263504 11.931226865263504
28.898226865263503 7.676226865263494 25.9803194042095
30.476226865263506 14.433680595790506 29.91068059579051
14.5637731347365 9.5242268652635 3.5547731347365
30.2223194042095 5.441226865263495 18.27968059579051
14.950773134736501 7.575773134736501 31.8382268652635
28.4537731347365 16.3382268652635 15.482226865263499
25.7342268652635 28.6107731347365 23.7192268652635
5.180226865263499 1.3456805957904976 1.5047731347364994
4.155226865263501 15.9397731347365 4.8627731347365
24.3873194042095 29.9637731347365 30.291226865263503
28.4787731347365 13.793773134736501 26.5863194042095
26.576680595790506 21.9482268652635 30.0977731347365
6.050226865263504 19.865680595790508 30.0577731347365
30.628226865263507 7.755773134736501 31.151226865263503
6.668680595790505 16.5167731347365 5.449680595790497
30.705680595790497 26.181226865263504 28.366773134736498
22.9272268652635 11.963773134736499 32.0877731347365
12.238319404209502 2.7982268652635014 22.628773134736498
31.2607731347365 11.3033194042095 6.213773134736501
31.7267731347365 11.772226865263498 3.9936805957904937
8.786226865263501 1.6597731347365006 22.7677731347365
17.0582268652635 22.9797731347365 10.991773134736501
5.838773134736501 20.5827731347365 2.955680595790497
15.0927731347365 31.9597731347365 21.3756805957905
3.713773134736501 18.450226865263495 2.7242268652634962
9.959773134736501 16.5937731347365 9.962226865263496
24.3937731347365 4.727226865263496 4.4147731347365
3.9687731347365 20.5657731347365 1.4607731347365007
25.9937731347365 13.8647731347365 15.4056805957905
27.8277731347365 1.4792268652634988 15.641226865263498
0.6097731347364999 15.5152268652635 4.697773134736501
26.836226865263505 12.6957731347365 29.6053194042095
17.5497731347365 10.5122268652635 23.087680595790502
4.800680595790496 14.490226865263502 7.785226865263503
17.693226865263505 14.541226865263503 6.894680595790504
31.0307731347365 16.308680595790506 27.1273194042095
27.022226865263498 21.3297731347365 29.839226865263505
23.047865673682495 10.775680595790504 14.0212268652635
31.764226865263502 13.133226865263502 18.251226865263497
30.0312268652635 22.345226865263506 3.3922268652635026
28.4032268652635 28.930773134736498 11.017226865263503
3.5082268652635022 0.2856805957904953 15.296773134736501
26.8387731347365 0.9287731347365007 0.2972268652635037
29.5337731347365 2.4616805957904973 5.288226865263503
10.353319404209504 20.720226865263506 8.642773134736501
29.197226865263495 24.7217731347365 5.2302268652634964
13.4602268652635 24.146226865263493 23.227226865263496
11.5857731347365 28.4122268652635 24.0672268652635
28.032319404209503 2.249680595790494 18.062226865263504
16.479680595790498 21.5147731347365 20.4647731347365
10.0977731347365 29.583226865263505 20.1767731347365
25.8013194042095 7.000680595790499 29.5827731347365
7.203226865263495 18.136226865263502 0.22322686526349855
9.8797731347365 11.8017731347365 2.697226865263495
23.3352268652635 24.7087731347365 4.863680595790498
25.9857731347365 26.2617731347365 29.5117731347365
27.0027731347365 26.5183194042095 11.8777731347365
20.6417731347365 19.7007731347365 13.305680595790506
8.956773134736501 4.159773134736501 23.357226865263506
3.2276805957905026 19.169773134736502 31.598226865263506
25.849773134736502 14.904226865263503 3.687773134736501
0.4583194042095009 12.728226865263501 27.9302268652635
24.4483194042095 4.366226865263499 0.3252268652634953
10.318226865263505 16.3876805957905 20.290680595790505
1.7372268652635015 21.145226865263503 19.3423194042095
23.3963194042095 15.0762268652635 25.3867731347365
6.023680595790495 1.0087731347365008 21.2737731347365
4.021773134736501 16.7932268652635 6.581773134736501
21.8807731347365 23.849773134736502 28.621226865263502
24.503226865263507 23.613226865263506 14.5637731347365
30.7992268652635 9.753680595790499 0.25822686526350225
30.433773134736498 9.107773134736501 28.280226865263494
21.7812268652635 2.050680595790496 23.379226865263497
16.7042268652635 21.794226865263504 24.410226865263503
18.019226865263498 5.2062268652634955 14.357226865263499
16.998226865263497 29.1467731347365 30.1577731347365
26.4092268652635 0.9397731347364999 30.7137731347365
24.7667731347365 28.873773134736503 28.462319404209502
13.7847731347365 23.626226865263497 26.2897731347365
25.771226865263493 21.9377731347365 31.770226865263503
27.8377731347365 8.549680595790505 27.6387731347365
2.5282268652634983 14.538226865263503 9.447226865263495
31.053680595790496 11.8187731347365 23.9123194042095
24.098680595790498 22.1647731347365 27.7103194042095
3.9192268652635036 13.3147731347365 0.4273194042095021
6.735773134736501 4.1222268652634995 16.9752268652635
10.562226865263504 1.2356805957904982 20.3322268652635
24.453226865263495 18.090319404209502 8.7817731347365
14.264680595790495 25.372226865263507 30.2527731347365
30.5942268652635 1.5317731347365005 30.730773134736502
14.453773134736501 10.538226865263503 20.3427731347365
27.0883194042095 15.4797731347365 24.3807731347365
17.9817731347365 7.9512268652635 12.0092268652635
25.75268059579051 28.685226865263495 27.625226865263507
8.740680595790494 17.3142268652635 31.1703194042095
4.733226865263497 19.306226865263504 2.1406805957904993
8.328226865263495 19.0807731347365 20.1127731347365
0.10122686526349867 8.909680595790505 28.024226865263493
8.610226865263499 22.1017731347365 7.535680595790495
12.3227731347365 24.474773134736502 23.0087731347365
28.0837731347365 28.1963194042095 29.364226865263497
10.694319404209498 20.172773134736502 7.641226865263498
28.458226865263505 5.904226865263503 17.137226865263493
14.3472268652635 9.0882268652635 4.117773134736501
13.2607731347365 28.7757731347365 19.971226865263496
1.1532268652634983 13.4882268652635 9.8262268652635
26.9357731347365 16.054226865263495 24.3657731347365
11.861226865263497 23.4313194042095 0.8082268652634994
10.269226865263498 3.0416805957904955 17.108226865263497
17.3567731347365 18.102226865263496 7.1067731347365
23.0107731347365 14.0522268652635 29.4707731347365
2.1252268652634996 14.578226865263495 28.4933194042095
19.669226865263504 18.1077731347365 9.224226865263496
3.2877731347365007 2.7122268652634958 14.596226865263496
13.6342268652635 31.0667731347365 30.791773134736502
26.500773134736498 6.465680595790502 13.046773134736501
31.175226865263504 3.0762268652635 19.8647731347365
20.7217731347365 5.023226865263503 23.584226865263496
15.856680595790507 17.639226865263502 25.176226865263494
27.6597731347365 23.2207731347365 4.234226865263501
28.4813194042095 5.833226865263498 18.390226865263493
7.2926805957905 9.5272268652635 23.973226865263506
27.0937731347365 20.608226865263497 23.8082268652635
12.944680595790501 24.3823194042095 1.9662268652635007
7.9117731347364995 29.5867731347365 17.489226865263497
10.651773134736501 3.0796805957904922 19.4872268652635
31.3033194042095 10.340773134736502 7.725680595790493
9.913226865263503 27.762226865263493 2.6796805957905008
30.2363194042095 0.04322686526349884 31.7813194042095
27.416226865263503 17.267226865263503 4.498773134736501
3.7473194042095024 26.663773134736502 16.104226865263506
26.7067731347365 27.7653194042095 11.517680595790495
31.9703194042095 1.0332268652635008 30.489226865263497
24.708680595790497 20.7167731347365 29.0043194042095
23.878226865263507 17.227226865263496 8.7197731347365
27.2217731347365 15.7717731347365 30.559226865263504
17.367226865263497 24.391226865263498 17.587226865263496
28.3467731347365 9.4967731347365 27.9127731347365
32.1487731347365 17.325226865263495 25.0492268652635
21.3168656736825 3.779680595790495 15.4912268652635
25.5307731347365 5.535134326317504 14.251226865263497
2.167226865263501 18.011226865263502 5.479226865263499
29.3652268652635 6.7627731347365 27.6587731347365
9.751226865263497 9.9722268652635 23.2303194042095
6.029226865263503 27.2903194042095 16.0732268652635
23.5947731347365 3.7132268652635005 19.2893194042095
10.612680595790493 13.5822268652635 3.557680595790501
29.8352268652635 11.481680595790493 31.502226865263502
22.410226865263503 23.7493194042095 24.726226865263506
12.173226865263501 24.7933194042095 30.116773134736498
8.5577731347365 17.9897731347365 5.155773134736501
31.314773134736498 4.934680595790496 32.098319404209505
9.679226865263495 24.0317731347365 32.0587731347365
26.4757731347365 25.979226865263506 10.648226865263503
26.439319404209503 23.4967731347365 27.336226865263505
22.1507731347365 2.0402268652634987 15.3557731347365
10.388680595790504 8.862226865263501 24.690773134736503
21.805319404209502 21.2317731347365 9.459773134736501
27.974226865263496 15.5807731347365 15.2988656736825
14.907226865263503 21.2777731347365 23.8267731347365
23.6207731347365 23.5657731347365 24.4817731347365
26.4217731347365 6.7572268652634975 19.032226865263503
24.9482268652635 12.6772268652635 31.3533194042095
23.6827731347365 29.220226865263506 23.4437731347365
5.694226865263495 26.9373194042095 15.5127731347365
11.316680595790501 29.0637731347365 22.230680595790503
24.129226865263497 10.3477731347365 27.930319404209502
19.8407731347365 19.9743194042095 14.789226865263501
9.739680595790503 16.003226865263507 3.7257731347364995
21.352226865263496 25.4603194042095 25.869773134736498
29.7807731347365 4.097680595790493 3.437134326317505
26.0237731347365 18.9437731347365 2.9877731347365
22.7372268652635 9.967226865263498 30.3437731347365
19.9737731347365 13.6342268652635 8.6492268652635
4.5607731347365 2.708226865263498 13.703773134736501
31.6463194042095 12.309226865263504 4.399773134736501
24.4873194042095 6.1392268652635025 30.9603194042095
25.277226865263493 7.114226865263497 25.5533194042095
23.5053194042095 26.534865673682503 26.6627731347365
6.189680595790506 11.952226865263505 1.623773134736501
20.0456805957905 4.1897731347365 23.8127731347365
9.3037731347365 30.7737731347365 18.979226865263506
9.4087731347365 3.3722268652634995 25.310226865263495
20.648319404209502 13.889319404209498 6.8057731347365
28.1353194042095 1.1947731347365007 16.7023194042095
11.501226865263497 32.0407731347365 25.7077731347365
6.5487731347365 24.948865673682505 27.3877731347365
1.2127731347364996 10.837226865263496 7.9051343263175085
3.0072268652634975 16.1697731347365 0.3276805957904969
22.2012268652635 22.0297731347365 9.701319404209503
18.2187731347365 22.178773134736502 23.3167731347365
25.0337731347365 4.312226865263504 5.306773134736501
3.6872268652635043 13.151680595790495 27.5717731347365
14.5117731347365 11.487226865263501 31.345226865263506
29.7657731347365 25.2377731347365 24.548226865263494
11.9417731347365 13.777773134736501 10.292226865263501
25.3813194042095 19.9537731347365 7.6797731347365
11.674773134736501 22.4337731347365 20.1323194042095
30.0867731347365 13.654680595790495 24.466680595790507
21.7197731347365 22.4487731347365 12.636226865263502
28.7913194042095 4.857773134736501 20.248226865263497
3.5822268652635003 13.1892268652635 0.9512268652635001
28.646226865263493 23.8447731347365 3.601680595790498
18.346226865263496 26.5907731347365 5.425680595790496
23.474226865263496 26.1627731347365 24.0073194042095
8.601319404209502 16.9212268652635 20.3743194042095
32.0243194042095 6.142226865263503 28.642319404209502
24.2227731347365 20.1796805957905 30.884226865263493
27.905226865263494 12.751226865263497 28.049319404209502
3.2562268652635 14.960319404209503 8.236226865263497
15.1767731347365 24.7167731347365 0.7412268652634992
10.853226865263501 22.6003194042095 1.749226865263502
4.305226865263499 18.7252268652635 3.6522268652635006
32.0377731347365 9.414226865263501 25.7437731347365
29.3583194042095 7.3987731347365 9.531226865263498
29.9027731347365 24.3937731347365 26.3947731347365
24.9497731347365 27.815773134736503 29.1333194042095
29.1417731347365 20.500226865263507 30.3577731347365
15.558680595790506 13.285680595790495 31.0727731347365
22.4347731347365 9.278226865263498 1.624680595790494
28.931773134736503 13.1257731347365 7.715226865263496
23.373226865263497 21.9727731347365 10.9547731347365
26.3047731347365 1.6957731347365002 22.2957731347365
25.896226865263493 23.7797731347365 27.976226865263506
24.488773134736498 18.1957731347365 5.3977731347365
1.3182268652635045 30.465226865263496 16.750226865263507
20.795226865263494 9.529226865263503 10.948680595790506
24.5237731347365 28.3877731347365 24.712226865263496
14.081226865263496 17.166226865263503 28.455226865263505
20.5432268652635 19.739226865263497 12.4947731347365
1.7072268652635003 13.811680595790506 9.225680595790493
12.767680595790495 10.014773134736501 30.8207731347365
17.0487731347365 16.1967731347365 7.1813194042095
17.0217731347365 19.259226865263493 28.061773134736498
14.4427731347365 9.598226865263499 21.857226865263506
25.151226865263503 7.728226865263501 30.8323194042095
15.2772268652635 15.885226865263498 28.9427731347365
16.8442268652635 19.363226865263506 12.7747731347365
23.667226865263494 19.476226865263506 12.3877731347365
15.1892268652635 31.8172268652635 22.999680595790508
13.964226865263498 20.0787731347365 1.083226865263498
28.617773134736503 12.404680595790495 25.756226865263493
23.122226865263507 25.9723194042095 27.9383194042095
6.495226865263497 16.691226865263495 1.8952268652635027
28.2747731347365 4.040226865263499 30.0972268652635
1.3716805957904938 19.1437731347365 3.292134326317509
15.437226865263504 29.4267731347365 0.9256805957904959
26.663773134736502 5.4107731347365 17.509226865263493
11.220226865263498 5.068680595790497 22.2937731347365
11.7102268652635 17.751226865263497 9.5517731347365
20.3533194042095 9.1342268652635 12.4087731347365
26.897680595790504 7.435226865263495 26.6307731347365
11.7772268652635 26.595226865263506 2.6426805957904946
1.2947731347365004 14.875319404209502 17.212226865263496
22.4187731347365 22.041773134736502 30.804226865263495
1.665680595790505 14.309226865263504 0.8547731347365009
3.377680595790494 16.8907731347365 0.9447731347365007
29.325226865263495 0.7406805957904936 30.0247731347365
5.975680595790493 31.0393194042095 18.9086805957905
11.6387731347365 23.354226865263506 26.8417731347365
7.580226865263505 18.8322268652635 1.0552268652634993
30.6017731347365 13.6967731347365 13.813226865263495
12.2617731347365 27.929226865263495 10.0287731347365
16.9723194042095 9.979226865263499 23.126680595790504
16.604226865263506 18.4326805957905 25.239773134736502
21.0097731347365 20.798226865263494 29.514226865263502
30.4297731347365 22.477773134736502 26.113773134736498
10.837226865263496 13.6282268652635 9.196680595790497
6.258226865263502 18.0227731347365 5.423226865263501
8.988773134736501 26.9547731347365 17.249226865263502
29.1567731347365 6.1592268652634985 31.625773134736498
20.995226865263497 26.3873194042095 27.0127731347365
30.3853194042095 7.4267731347365 24.762226865263493
20.2607731347365 1.9417731347365006 23.0567731347365
1.1367731347365009 12.400226865263498 3.4587731347365
17.9283194042095 20.4843194042095 12.295226865263501
17.442773134736502 20.0467731347365 9.8812268652635
6.743226865263502 16.134319404209503 3.3832268652635022
27.9293194042095 16.214680595790497 2.6383194042095006
13.0937731347365 20.766680595790504 23.386865673682507
19.413226865263503 3.850226865263501 22.8933194042095
1.725680595790493 13.360226865263499 29.285773134736502
21.1153194042095 8.5037731347365 11.2057731347365
24.4027731347365 27.6982268652635 27.212226865263496
30.2842268652635 23.4047731347365 4.037773134736501
9.444226865263495 2.556680595790496 23.044773134736502
5.751226865263497 29.7607731347365 17.0247731347365
23.9067731347365 7.504226865263497 27.9662268652635
21.230773134736502 1.3046805957905008 17.2477731347365
2.8822268652634975 20.6153194042095 25.685226865263495
26.2282268652635 26.9387731347365 9.967226865263498
4.0077731347364995 3.569226865263495 18.237680595790508
23.3756805957905 5.012680595790499 4.184226865263504
6.860226865263499 23.922773134736502 26.0817731347365
27.2173194042095 4.931680595790496 20.5787731347365
5.137680595790499 0.015773134736498662 2.5456805957905004
29.939680595790506 27.473226865263506 30.1707731347365
25.4457731347365 23.032319404209503 28.1477731347365
30.4353194042095 8.419226865263504 30.7827731347365
23.099773134736502 14.376680595790504 23.9387731347365
24.376773134736503 10.0857731347365 25.1922268652635
16.3167731347365 9.1377731347365 20.1767731347365
23.6577731347365 27.5297731347365 23.1963194042095
9.078226865263495 2.5582268652634994 18.7647731347365
25.9907731347365 17.355226865263496 6.915773134736501
21.816226865263495 6.225226865263501 14.474226865263496
4.907226865263503 21.580226865263505 2.6317731347365
28.4447731347365 25.287680595790505 28.393226865263493
5.590226865263496 2.7072268652635003 13.6922268652635
23.699680595790497 27.0492268652635 25.217226865263505
25.6592268652635 30.681773134736503 26.825226865263495
16.4632268652635 27.884226865263493 30.2932268652635
30.9467731347365 11.8992268652635 26.0027731347365
25.521226865263493 22.005226865263502 28.1737731347365
26.459226865263496 28.8177731347365 31.7237731347365
23.681226865263504 12.895226865263503 5.5702268652635
31.802773134736498 10.2317731347365 6.892226865263503
16.5867731347365 11.852226865263496 23.0637731347365
12.473680595790498 27.1263194042095 0.45168059579049213
11.595319404209501 26.5707731347365 9.639773134736501
9.468226865263496 13.950773134736501 2.1152268652635016
12.5537731347365 18.803680595790496 22.5927731347365
27.3543194042095 15.563226865263495 17.8353194042095
30.6652268652635 14.621226865263502 23.5857731347365
1.9532268652634954 4.550680595790496 7.004226865263497
28.1707731347365 26.8173194042095 9.6307731347365
13.6132268652635 8.084226865263496 0.7042268652635002
16.4657731347365 7.163680595790495 3.827680595790497
4.909773134736501 28.9483194042095 13.3967731347365
10.8472268652635 26.242773134736503 31.718680595790502
18.7872268652635 5.552226865263499 31.3043194042095
8.935226865263495 31.3243194042095 13.982773134736501
9.306226865263504 0.897226865263498 24.1136805957905
0.2502268652634996 9.730226865263496 31.1443194042095
10.020226865263503 3.6062268652635012 22.2902268652635
27.355680595790503 13.3142268652635 31.501773134736503
30.684773134736503 13.497680595790499 28.6323194042095
26.2097731347365 6.9167731347365 3.478226865263501
5.9236805957905005 16.050680595790496 1.2627731347365003
8.9587731347365 9.516226865263498 6.709680595790502
31.703226865263495 11.394226865263498 29.2347731347365
22.076680595790506 14.969134326317516 28.021226865263493
0.17522686526350384 14.171226865263499 5.962680595790502
29.4097731347365 1.8522268652634963 21.6217731347365
25.1797731347365 21.1317731347365 32.0587731347365
3.7402268652635016 12.0732268652635 1.610226865263499
0.4186805957905051 9.310226865263495 24.4857731347365
20.7203194042095 9.866680595790498 11.373226865263497
7.530773134736501 14.1187731347365 24.9797731347365
21.438226865263495 17.5927731347365 14.478226865263501
26.5607731347365 1.6902268652635044 32.132773134736496
23.5377731347365 16.224773134736502 6.024319404209503
9.674773134736501 28.154226865263503 2.046773134736501
14.4367731347365 20.239680595790503 25.492773134736503
22.214226865263505 7.8142268652635 16.113226865263506
28.470226865263506 20.4242268652635 29.470226865263506
17.1117731347365 25.5546805957905 21.2047731347365
6.480680595790503 28.6062268652635 17.8257731347365
19.383226865263502 19.3187731347365 11.303226865263504
28.4557731347365 12.307226865263495 31.2827731347365
13.5032268652635 27.4127731347365 1.2372268652635015
13.921680595790505 20.4337731347365 2.1962268652635046
9.572226865263495 15.058319404209502 1.1042268652634988
27.138680595790504 4.0852268652635 29.926226865263494
2.2192268652635008 30.453226865263495 13.8707731347365
13.5612268652635 31.622319404209502 23.367226865263497
0.05022686526350384 7.141680595790504 1.272226865263498
25.9587731347365 17.0977731347365 22.8237731347365
2.715226865263496 10.8397731347365 25.3873194042095
26.6517731347365 14.169680595790496 22.3623194042095
14.2187731347365 23.390226865263493 20.9697731347365
14.8657731347365 11.392680595790495 29.4542268652635
13.5187731347365 1.064680595790506 17.6037731347365
11.480226865263496 10.2277731347365 11.337773134736501
2.6222268652634995 3.171226865263499 0.48168059579049327
20.2587731347365 13.6297731347365 4.1637731347365
22.215226865263496 8.8292268652635 12.194226865263495
25.7657731347365 10.6477731347365 30.1127731347365
23.142319404209502 6.249226865263502 0.7912268652635035
26.093319404209502 28.1652268652635 29.5257731347365
21.6062268652635 25.363319404209502 24.578226865263495
24.023226865263503 15.1997731347365 25.869319404209502
24.096319404209503 29.363226865263506 28.4537731347365
15.2192268652635 17.3487731347365 29.4667731347365
5.248226865263497 31.1437731347365 14.7277731347365
22.111226865263497 10.989226865263497 27.0912268652635
31.444226865263495 6.536226865263501 30.721226865263496
30.560226865263495 13.4867731347365 4.1327731347364995
4.2652268652635 14.0077731347365 5.853680595790493
9.6277731347365 28.375319404209502 0.5382268652635034
15.481226865263501 26.8237731347365 29.9727731347365
1.921226865263499 6.494226865263499 1.164226865263501
25.636226865263502 5.173226865263501 27.435226865263495
6.073680595790506 30.4047731347365 15.409680595790505
2.2952268652635013 3.9467731347364996 9.773773134736501
25.708226865263505 15.2562268652635 13.017226865263503
1.3137731347365005 18.119226865263506 0.5592268652635042
30.465319404209502 17.099226865263496 18.4323194042095
19.738226865263506 22.842226865263505 4.850680595790493
10.058773134736501 17.4317731347365 22.7873194042095
27.4662268652635 24.0257731347365 23.7416805957905
26.619773134736498 21.4947731347365 30.628773134736498
17.427319404209502 15.911226865263494 11.0727731347365
4.6317731347365 17.854680595790498 29.8777731347365
23.5983194042095 8.3202268652635 2.7836805957905
29.215319404209502 3.292226865263501 5.504226865263497
2.3512268652634987 8.245226865263497 26.149226865263493
13.0002268652635 27.9722268652635 1.4452268652634999
27.8803194042095 23.280226865263494 28.562680595790496
3.5717731347364996 22.116226865263506 26.398319404209502
29.2133194042095 9.0987731347365 28.247773134736498
31.924319404209502 1.732226865263499 27.861226865263497
11.755226865263502 30.8203194042095 16.1337731347365
28.6427731347365 9.1127731347365 28.301226865263494
9.422226865263504 22.246226865263502 22.7902268652635
30.805773134736498 24.619226865263506 26.2303194042095
19.1567731347365 4.233226865263497 2.4762268652634987
7.8352268652635 19.837226865263496 1.2917731347365002
2.885680595790504 5.5227731347365 26.1307731347365
26.328226865263495 16.152226865263493 24.6487731347365
9.4007731347365 0.26522686526350014 14.602226865263496
14.061319404209502 26.1467731347365 10.9392268652635
21.6507731347365 24.517226865263503 23.8493194042095
22.7157731347365 5.866680595790498 18.8417731347365
14.4227731347365 26.6427731347365 1.9287731347365007
21.748226865263497 22.266226865263498 15.607226865263499
9.642226865263503 32.1712268652635 17.3367731347365
20.898319404209502 5.9392268652635 11.296226865263499
29.2207731347365 6.3482268652634986 0.9603194042095033
13.473226865263499 26.366773134736498 0.5626805957904963
12.360226865263499 1.2537731347365 19.8037731347365
23.620226865263497 27.550773134736502 26.878226865263507
20.378226865263507 3.2702268652635027 22.7217731347365
18.8227731347365 19.9953194042095 16.1297731347365
30.8537731347365 10.9377731347365 7.554319404209497
24.5267731347365 27.538226865263503 26.2957731347365
15.078773134736501 19.6047731347365 9.2617731347365
14.998773134736501 6.505226865263502 29.3213194042095
31.039226865263494 25.703226865263495 31.745773134736503
24.3577731347365 1.267773134736501 17.7507731347365
11.338773134736499 14.8527731347365 9.911226865263501
29.3947731347365 21.9323194042095 23.386226865263502
31.6497731347365 13.6432268652635 25.0653194042095
2.4392268652634996 13.736680595790503 4.100319404209504
11.595680595790498 27.680773134736498 31.6797731347365
11.720319404209501 20.6537731347365 1.4886805957904983
2.3797731347364994 28.5282268652635 13.9362268652635
4.998226865263497 15.309226865263504 3.7986805957905005
32.0507731347365 2.1962268652635046 2.3172268652634997
30.5287731347365 14.8217731347365 12.843226865263496
26.724773134736502 11.999680595790494 28.9763194042095
18.849226865263496 18.7067731347365 7.0137731347365
11.083226865263498 25.9423194042095 30.808773134736498
15.2217731347365 20.701680595790506 19.0587731347365
31.501773134736503 0.9482268652635 9.2917731347365
9.4572268652635 26.6127731347365 0.28222686526350316
28.0126805957905 20.9123194042095 29.9332268652635
24.8177731347365 6.9867731347365005 17.2902268652635
2.581680595790502 4.322226865263495 10.285226865263503
11.941226865263495 19.1682268652635 20.628226865263507
25.0927731347365 15.615134326317502 25.503865673682498
9.7317731347365 30.7813194042095 17.5247731347365
19.8847731347365 19.726226865263506 8.0997731347365
18.9157731347365 23.369319404209502 2.150226865263498
25.9873194042095 22.7717731347365 24.4182268652635
22.331226865263496 13.315680595790496 26.9173194042095
23.9212268652635 22.0727731347365 13.0456805957905
2.4947731347364996 0.7332268652634966 15.5347731347365
22.1957731347365 15.4437731347365 29.3052268652635
13.860773134736501 4.5732268652635 13.005226865263502
21.9647731347365 16.038773134736502 8.343226865263496
0.33877313473650084 10.4422268652635 28.834319404209502
10.614226865263497 16.8867731347365 10.259680595790499
12.946226865263505 3.9392268652634996 25.788226865263503
9.628680595790499 21.1976805957905 21.3167731347365
0.8172268652634997 4.777773134736501 29.7843194042095
11.4287731347365 11.3617731347365 9.407226865263503
12.889226865263502 23.988226865263506 23.765226865263493
24.3927731347365 3.1112268652634967 17.6257731347365
11.045226865263501 21.6303194042095 6.642226865263503
25.6373194042095 1.9512268652635 22.3347731347365
2.267773134736501 16.384226865263493 0.39577313473649944
16.4356805957905 6.0367731347364995 1.971226865263496
22.295226865263494 10.346226865263496 11.2107731347365
21.250773134736498 17.289226865263494 5.398226865263503
30.747226865263507 1.969773134736501 31.8597731347365
24.175773134736502 16.1177731347365 22.925773134736502
0.7046805957904922 14.819319404209498 1.174226865263499
10.598319404209501 1.9267731347365 19.9727731347365
1.6152268652635016 5.5077731347364995 0.442680595790506
2.5966805957905024 22.7637731347365 19.471226865263496
27.233773134736502 2.1122268652635015 31.5427731347365
15.5217731347365 21.551226865263494 19.925226865263504
2.389773134736501 3.5146805957904945 9.340773134736502
31.0987731347365 25.465319404209502 30.0817731347365
28.358773134736502 16.252226865263502 23.9133194042095
20.8063194042095 4.114226865263497 23.4153194042095
25.0177731347365 18.684680595790496 8.7742268652635
