14.4967731347365 14.4497731347365 25.7717731347365
5.114773134736501 22.096226865263496 9.662226865263499
11.3757731347365 14.0397731347365 26.5113194042095
18.0247731347365 24.6517731347365 9.2712268652635
1.4323194042094975 4.022680595790504 19.4607731347365
7.694226865263495 14.565226865263504 3.110226865263499
5.851773134736501 6.510226865263498 8.8812268652635
14.031226865263498 16.398226865263503 30.2607731347365
27.3543194042095 4.879773134736499 18.3607731347365
6.656226865263498 8.994680595790499 28.221319404209503
21.0307731347365 15.526680595790495 13.7807731347365
21.8667731347365 9.291226865263503 19.6657731347365
15.9167731347365 5.982680595790498 1.0327731347365
19.9657731347365 13.663226865263503 7.652226865263501
7.7577731347364995 16.054319404209497 25.0383194042095
31.9757731347365 24.9632268652635 0.8833194042094981
21.035773134736502 4.241226865263499 12.8167731347365
22.780226865263494 10.199226865263505 19.2447731347365
26.9932268652635 14.7907731347365 3.7697731347365
29.3947731347365 6.907226865263503 7.8587731347365
8.1677731347365 14.9647731347365 22.4917731347365
8.4847731347365 13.092226865263498 3.812773134736501
7.235319404209502 13.557226865263495 0.45331940420949834
25.5767731347365 30.2127731347365 12.4373194042095
19.9397731347365 10.044226865263504 26.641226865263498
22.523319404209502 27.140226865263493 17.2877731347365
5.527226865263501 3.8137731347365005 7.6887731347365005
19.3047731347365 3.5922268652634983 4.0367731347364995
15.4942268652635 13.4302268652635 24.6093194042095
19.4077731347365 23.8003194042095 10.405319404209504
5.2277731347365 5.521773134736501 7.4947731347365
19.246226865263502 10.125680595790499 23.8093194042095
19.7567731347365 8.223226865263499 1.3466805957905024
19.9527731347365 23.104226865263506 10.205226865263505
2.0477731347365005 13.6892268652635 11.587680595790502
28.1617731347365 32.113226865263506 24.663226865263503
1.0162268652634978 15.028319404209501 30.4182268652635
2.157226865263503 16.1367731347365 15.465226865263496
15.2027731347365 7.5002268652635 12.748680595790503
25.4447731347365 10.081773134736501 21.666773134736502
22.9182268652635 0.25877313473650077 1.2747731347365008
15.340680595790502 25.939773134736498 29.1703194042095
9.6132268652635 7.4787731347365 25.053773134736502
5.2836805957905 7.144680595790504 18.7517731347365
18.3857731347365 16.4157731347365 7.327680595790497
4.1647731347365 31.2103194042095 10.609680595790493
28.501773134736503 3.3987731347364996 9.9447731347365
14.173226865263501 16.8157731347365 28.151226865263503
13.5217731347365 24.012226865263493 18.2837731347365
21.8943194042095 11.3147731347365 21.822226865263495
11.1802268652635 21.9537731347365 12.185226865263495
13.391226865263498 27.689773134736498 26.8107731347365
21.1967731347365 0.4237731347364999 1.1962268652635046
6.082773134736501 5.6932268652635045 26.785226865263503
14.2532268652635 0.9822268652634989 28.6457731347365
6.471226865263496 6.3622268652635015 24.5543194042095
8.9722268652635 18.5317731347365 10.188226865263495
29.581319404209502 31.7647731347365 25.4983194042095
18.720226865263506 23.7427731347365 12.8217731347365
19.3387731347365 16.3562268652635 8.180773134736501
23.652226865263493 4.873773134736501 13.2102268652635
20.0703194042095 5.046226865263499 2.141680595790504
11.700773134736501 6.048226865263501 28.689773134736498
30.9383194042095 1.874226865263502 18.547226865263504
22.247226865263507 30.9647731347365 1.8112268652634995
29.7433194042095 23.0432268652635 11.462773134736501
2.7386805957904983 5.639773134736501 18.192680595790506
29.5612268652635 21.5317731347365 10.4027731347365
15.3917731347365 24.3873194042095 27.815773134736503
11.2627731347365 8.864680595790503 9.4437731347365
25.5437731347365 11.3197731347365 9.181680595790496
0.9482268652635 1.1843194042095 5.6037731347365
18.1877731347365 21.4572268652635 11.8037731347365
26.607226865263506 31.919773134736502 0.27122686526350037
23.0522268652635 8.295226865263501 22.7017731347365
31.232865673682497 29.916773134736502 22.4787731347365
26.0707731347365 0.904226865263503 16.1197731347365
10.1277731347365 9.481226865263501 11.203226865263495
19.3007731347365 30.7867731347365 21.238226865263506
27.4722268652635 7.6287731347365 16.8457731347365
22.184680595790496 32.0147731347365 13.6757731347365
28.232680595790498 31.4647731347365 31.5107731347365
24.7157731347365 4.297226865263504 26.3153194042095
21.8172268652635 2.782226865263503 1.7432268652635017
25.0383194042095 5.7232268652634986 12.8627731347365
10.136226865263502 6.121680595790494 7.6707731347365
25.8503194042095 2.7442268652634993 20.1957731347365
15.8063194042095 7.595319404209501 11.441226865263495
5.435226865263495 30.8353194042095 19.219680595790507
20.5307731347365 6.4037731347365 24.562773134736503
9.498226865263497 16.7577731347365 23.680680595790506
7.8937731347365006 11.217226865263498 3.8682268652635017
19.108226865263497 11.838680595790493 31.9237731347365
19.164226865263494 24.8472268652635 12.5972268652635
2.802226865263499 15.7222268652635 17.0637731347365
7.597680595790493 16.305319404209502 22.254226865263497
0.7162268652635007 31.9017731347365 12.961226865263498
30.3297731347365 1.4237731347365 24.88668059579051
13.059226865263504 14.162319404209502 24.2667731347365
21.7477731347365 7.310226865263495 5.284680595790505
11.934226865263504 2.3717731347365003 3.3117731347365
17.891226865263498 27.3292268652635 11.270773134736501
12.7382268652635 0.5412268652635035 5.388226865263498
22.7377731347365 2.6676805957905003 30.742226865263497
4.957680595790492 3.1283194042095026 18.8682268652635
27.003319404209503 10.244680595790499 15.673319404209504
8.9437731347365 31.125226865263507 20.0247731347365
23.276226865263503 25.7753194042095 6.093319404209499
18.8562268652635 25.6952268652635 8.3437731347365
23.022226865263498 1.7192268652635008 13.5137731347365
26.208226865263505 29.0822268652635 15.888226865263498
0.23622686526349668 2.4257731347365006 7.211226865263498
11.5257731347365 6.7797731347365 8.151773134736501
0.9632268652635005 17.0957731347365 19.072226865263495
26.2467731347365 17.1917731347365 2.5417731347365002
12.096226865263496 27.01468059579051 16.928226865263504
18.414226865263494 25.0402268652635 9.987226865263501
8.915226865263499 9.424226865263499 9.0627731347365
19.6467731347365 6.533773134736501 0.5127731347365003
8.555773134736501 0.041680595790495545 20.372226865263507
3.1622268652634986 20.649226865263493 24.1317731347365
29.4877731347365 9.4052268652635 18.202226865263505
4.184226865263504 6.050226865263504 17.175226865263504
24.6277731347365 2.6732268652635014 13.4727731347365
7.455226865263505 25.911226865263494 9.168226865263499
10.5197731347365 16.502226865263502 24.474226865263496
6.7302268652634964 2.8817731347365 9.3857731347365
23.434226865263504 11.195680595790506 25.5267731347365
14.2667731347365 26.494226865263506 6.845226865263498
27.3257731347365 10.9747731347365 22.9377731347365
16.0993194042095 9.136226865263502 1.961226865263498
17.4062268652635 4.546773134736501 1.8517731347365007
17.8127731347365 24.6527731347365 6.737319404209504
24.6767731347365 3.191226865263495 3.9022268652635006
11.6367731347365 28.8167731347365 9.113773134736501
8.3202268652635 27.9793194042095 18.7967731347365
23.057226865263495 24.899226865263493 31.580226865263505
23.4602268652635 30.9032268652635 27.7147731347365
19.3087731347365 31.314773134736498 19.783226865263494
16.629226865263497 16.301226865263494 18.4687731347365
14.1047731347365 16.0027731347365 23.691226865263495
6.591680595790493 8.324226865263505 17.2607731347365
14.839680595790497 14.6207731347365 28.4302268652635
14.3397731347365 8.666226865263503 10.578773134736501
11.791226865263503 1.3102268652634947 5.2667731347365
22.500319404209502 5.7716805957904995 6.609226865263501
28.7997731347365 13.5737731347365 28.2453194042095
1.319226865263495 10.097319404209504 24.1427731347365
19.0267731347365 0.42768059579050544 18.3357731347365
29.6196805957905 20.7043194042095 11.7087731347365
15.5387731347365 26.931226865263504 4.825773134736501
19.3947731347365 4.538680595790495 5.9687731347365
25.8583194042095 17.5657731347365 3.103680595790493
26.024226865263493 9.840773134736502 22.1237731347365
0.9347731347365009 15.6157731347365 31.0117731347365
21.7267731347365 14.4717731347365 5.691773134736501
26.0672268652635 0.2912268652635035 2.4872268652635015
7.038226865263503 22.428773134736502 11.511680595790494
28.0187731347365 8.6132268652635 20.9337731347365
12.429226865263495 13.671773134736501 29.053226865263504
5.703226865263495 10.529134326317504 20.0657731347365
23.502226865263502 30.2147731347365 14.331773134736501
26.123773134736503 0.2227731347364994 14.674226865263499
30.9053194042095 13.5957731347365 10.9097731347365
25.6802268652635 1.2606805957905038 4.7827731347365
30.2812268652635 31.706319404209502 17.795226865263494
0.8937731347365006 13.5907731347365 10.592680595790497
26.8442268652635 30.450226865263495 28.438226865263495
1.8822268652634975 20.0637731347365 23.935226865263495
6.5357731347365 5.110226865263499 8.080226865263505
20.5882268652635 26.8517731347365 11.0517731347365
20.2773194042095 30.3387731347365 8.8112268652635
16.1497731347365 30.143226865263493 13.6737731347365
25.419773134736502 7.344773134736501 23.274226865263493
26.9373194042095 29.3843194042095 28.613773134736498
20.078319404209502 2.964226865263498 4.306226865263504
15.865319404209497 0.22677313473650074 12.042226865263501
16.0877731347365 24.280226865263494 29.1747731347365
19.8697731347365 29.0552268652635 7.309773134736501
30.6983194042095 4.7912268652635035 5.0937731347365
21.02368059579051 15.2237731347365 18.193226865263505
9.3967731347365 7.950773134736501 25.7902268652635
23.5177731347365 28.8817731347365 14.147226865263498
30.2162268652635 7.991680595790498 6.053226865263504
30.482226865263506 24.251226865263497 13.471319404209499
8.474680595790502 24.547773134736502 1.4903194042094974
15.720226865263498 8.9837731347365 3.748226865263497
20.024226865263493 13.5062268652635 1.5272268652635006
19.0097731347365 25.6593194042095 7.584226865263496
23.334226865263496 26.453226865263495 29.8187731347365
30.905226865263494 25.241226865263506 16.627226865263502
6.114680595790503 1.1452268652635027 28.5633194042095
27.270226865263503 10.7562268652635 19.5257731347365
5.800226865263504 6.117680595790503 28.565773134736503
17.886226865263502 21.253226865263507 15.8047731347365
3.229773134736501 19.817773134736502 4.1372268652635
15.703226865263495 14.810680595790501 29.738319404209502
17.0917731347365 4.213134326317515 32.13422686526349
23.979226865263506 19.1377731347365 15.4362268652635
18.7746805957905 29.827680595790497 6.1437731347365006
11.105226865263496 5.6897731347365 11.0302268652635
19.7072268652635 26.7992268652635 8.1507731347365
28.249226865263502 19.6013194042095 12.2832268652635
23.9752268652635 9.880226865263502 20.544773134736502
15.918226865263499 22.6407731347365 10.560226865263495
15.141680595790504 15.1706805957905 30.2117731347365
24.7237731347365 31.677773134736498 31.4527731347365
21.5567731347365 10.9332268652635 31.2747731347365
22.413773134736502 13.8277731347365 9.036319404209504
3.5047731347364994 2.0072268652634975 25.7287731347365
20.761226865263502 30.738773134736498 22.289226865263494
17.980226865263496 26.9387731347365 10.770773134736501
20.818226865263505 14.107773134736501 6.863226865263499
6.409773134736501 29.9047731347365 11.743226865263502
9.898226865263503 27.632226865263497 10.7077731347365
13.5417731347365 5.042226865263501 20.483226865263497
22.4193194042095 12.0212268652635 10.1907731347365
3.8787731347365 10.124226865263502 19.3207731347365
10.534134326317513 10.204680595790492 10.985773134736501
6.2347731347365 2.4492268652635047 12.8127731347365
15.4147731347365 6.535680595790495 21.217226865263505
29.678226865263504 0.5286805957905045 24.474226865263496
1.9572268652635003 13.6567731347365 22.5367731347365
14.844680595790493 30.8947731347365 25.8867731347365
9.907680595790495 11.354226865263499 16.4847731347365
6.885226865263498 27.181226865263504 18.13068059579051
26.181773134736503 23.535773134736502 19.5393194042095
7.014773134736501 31.4632268652635 28.1317731347365
28.029319404209502 9.505226865263502 17.5612268652635
14.961226865263498 6.092226865263498 10.039226865263501
16.2943194042095 13.4817731347365 27.7967731347365
13.205226865263505 32.0883194042095 17.6857731347365
16.613226865263506 14.209226865263496 28.5517731347365
22.7923194042095 27.142226865263503 15.0347731347365
24.7217731347365 4.341226865263501 2.4492268652635047
27.8233194042095 12.6197731347365 25.139226865263502
6.1407731347365 7.199226865263505 6.2757731347365
9.874226865263502 26.206319404209502 19.300226865263504
12.176226865263494 28.3417731347365 18.885226865263498
13.095680595790498 26.096319404209503 16.275226865263498
30.7767731347365 17.785773134736502 18.0792268652635
19.7287731347365 23.2807731347365 9.081226865263496
25.6032268652635 5.556226865263504 26.3622268652635
5.453773134736501 13.108226865263497 4.296226865263499
19.2397731347365 14.584773134736501 9.145680595790495
16.1532268652635 12.889773134736501 25.4963194042095
30.9793194042095 8.5837731347365 12.176226865263494
22.4272268652635 4.933226865263499 14.028226865263498
16.8937731347365 9.025226865263498 1.9976805957904986
24.979226865263506 10.0637731347365 24.3357731347365
1.0906805957905021 15.0186805957905 19.246226865263502
17.3323194042095 27.8297731347365 7.629773134736499
25.613226865263506 22.1407731347365 16.022226865263498
5.488226865263499 5.892680595790495 9.987226865263501
27.681226865263504 9.5032268652635 23.9657731347365
22.7523194042095 1.8282268652634954 1.7736805957904949
15.994226865263506 28.7847731347365 7.7317731347365
14.7132268652635 8.068226865263505 10.774773134736499
2.5547731347365 9.169226865263504 19.627226865263502
18.4817731347365 12.567680595790506 16.647680595790504
1.0612268652634995 1.2712268652635004 3.219680595790493
1.8377731347364996 13.6247731347365 13.2907731347365
28.8297731347365 9.0917731347365 24.7667731347365
28.2283194042095 4.746680595790494 18.303226865263504
7.665773134736501 9.482773134736501 25.808773134736498
27.288773134736502 30.2007731347365 17.189680595790506
5.926226865263494 18.1567731347365 15.444226865263495
27.238773134736498 18.773319404209502 13.760226865263498
15.495226865263497 6.0387731347365 8.839226865263498
25.538773134736502 0.7772268652635006 14.4897731347365
16.9617731347365 30.8597731347365 19.768226865263493
31.4147731347365 1.4663194042095036 18.456226865263496
9.487226865263501 5.577226865263505 26.5282268652635
18.9037731347365 29.878773134736498 7.9917731347364995
13.305680595790506 0.42822686526350395 25.9607731347365
12.342226865263498 8.1372268652635 11.3127731347365
17.242680595790503 4.2287731347365 20.035226865263503
30.846226865263496 30.8473194042095 17.328226865263495
15.3966805957905 31.533226865263494 27.551226865263494
14.4602268652635 1.6456805957904947 2.6406805957904993
20.2132268652635 6.098680595790498 26.107226865263506
24.131226865263493 13.6222268652635 11.535226865263503
13.793226865263499 26.063226865263495 18.138226865263498
6.721226865263496 7.1392268652635025 7.836680595790497
18.999226865263502 15.322680595790501 15.790226865263499
25.4577731347365 1.5452268652635013 30.2423194042095
1.9262268652634944 4.508226865263502 15.1697731347365
10.5397731347365 23.997319404209502 18.0642268652635
19.0777731347365 15.1772268652635 19.6177731347365
26.925773134736502 18.299319404209502 1.583226865263498
22.6617731347365 8.681226865263504 17.0947731347365
7.873226865263497 29.196226865263505 17.3187731347365
27.89268059579051 18.3442268652635 2.9907731347365
7.667226865263501 28.373773134736503 18.1706805957905
14.2746805957905 7.658773134736501 10.766226865263498
20.0987731347365 2.9306805957905055 6.665680595790505
25.431226865263504 23.8127731347365 18.373226865263497
15.3537731347365 15.8692268652635 14.349226865263496
29.105773134736502 6.8467731347365 24.7667731347365
22.767226865263503 0.6457731347364994 2.394226865263498
21.9122268652635 27.5213194042095 15.517773134736501
12.082319404209503 1.0636805957905011 2.4527731347365
27.333226865263505 29.7577731347365 1.5856805957904925
8.164319404209504 31.8323194042095 21.3273194042095
13.2427731347365 15.881680595790499 24.0453194042095
9.1826805957905 13.954680595790492 26.6712268652635
17.337226865263496 14.674226865263499 20.8667731347365
15.732773134736501 14.380226865263502 17.6367731347365
26.729226865263506 3.1247731347365004 0.455680595790497
12.8767731347365 13.9972268652635 23.2757731347365
26.819226865263495 5.1477731347365 23.1377731347365
2.3842268652635 19.419773134736502 3.5552268652634993
29.8172268652635 23.7477731347365 13.668226865263499
29.638226865263498 22.253226865263507 11.871226865263502
5.1392268652635025 11.651226865263503 16.291773134736502
22.1517731347365 3.5822268652635003 14.465226865263496
26.6707731347365 6.381319404209503 24.313226865263495
3.9622268652634958 19.4062268652635 7.664226865263501
4.898226865263503 19.569226865263495 7.5577731347365
9.4997731347365 12.3587731347365 3.4732268652634986
4.0357731347365 1.894226865263498 24.934226865263504
29.3683194042095 20.647226865263498 13.369680595790499
20.364226865263497 3.814680595790506 6.703680595790502
29.899226865263493 20.9547731347365 7.6537731347365
2.2332268652634966 10.514773134736501 26.599773134736502
22.0937731347365 27.0267731347365 16.595226865263506
27.422226865263504 3.466773134736501 19.6113194042095
14.4607731347365 9.6187731347365 9.647226865263498
0.16722686526350117 19.248226865263497 20.0197731347365
25.352773134736502 10.732773134736501 25.2962268652635
0.9207731347364998 7.196226865263505 11.4512268652635
20.735319404209502 1.0927731347365004 1.0972268652635009
1.5097731347365002 31.580226865263505 6.038680595790495
1.3962268652635004 13.5657731347365 9.7866805957905
6.9967731347365 20.6807731347365 10.169226865263504
17.5597731347365 14.1027731347365 5.5747731347365
27.9403194042095 15.941226865263495 26.7097731347365
23.771226865263493 3.7712268652635004 2.6187731347365
12.458226865263498 16.9597731347365 25.613226865263506
11.398226865263503 1.6106805957904982 18.5507731347365
6.864226865263497 7.913680595790495 18.0087731347365
23.1547731347365 1.7192268652635008 3.510680595790504
24.3966805957905 32.1577731347365 15.9082268652635
20.920226865263494 2.7712268652635004 1.2207731347365005
9.5747731347365 30.3627731347365 10.7592268652635
14.949680595790497 28.738865673682497 27.2807731347365
12.721226865263496 4.7372268652635015 19.030226865263494
10.941226865263495 7.419226865263504 11.212680595790502
21.479680595790498 7.748773134736501 6.1932268652635045
21.4632268652635 7.5612268652634995 24.6153194042095
2.8832268652635022 18.5687731347365 4.598773134736501
2.728226865263501 1.7402268652635016 5.353226865263501
23.101226865263506 5.354226865263499 3.4897731347365006
24.882226865263497 31.4873194042095 15.5877731347365
24.753773134736498 27.949865673682496 15.2497731347365
16.3082268652635 27.755226865263502 25.4482268652635
15.947226865263495 17.895226865263503 30.936319404209502
6.6322268652634975 3.3152268652635044 6.483226865263497
16.648226865263503 24.7017731347365 24.7252268652635
18.2547731347365 21.132680595790504 11.231226865263501
28.6092268652635 1.7932268652634988 9.608226865263497
19.831680595790502 16.3997731347365 5.116226865263499
20.9477731347365 17.532319404209503 30.3687731347365
22.52668059579051 23.928773134736502 32.0273194042095
26.3142268652635 5.2287731347365 12.656680595790505
21.724226865263496 26.8887731347365 8.1432268652635
7.2687731347365006 29.0347731347365 10.532226865263503
8.979226865263499 28.8807731347365 17.901226865263503
18.0797731347365 31.437773134736503 19.8957731347365
21.1387731347365 8.815680595790496 24.755226865263502
11.730226865263496 7.9307731347365 19.975680595790507
13.032680595790495 31.722865673682506 4.2927731347365
20.3553194042095 3.246226865263502 12.7767731347365
27.042226865263494 9.6982268652635 25.508226865263502
21.3367731347365 25.27668059579051 7.0142268652635025
26.943226865263505 31.9007731347365 13.7447731347365
11.290226865263499 12.261226865263502 25.5253194042095
21.6413194042095 12.108226865263497 6.421226865263499
24.0837731347365 2.3777731347365005 0.8546805957904979
28.8227731347365 18.7387731347365 11.2472268652635
24.277226865263493 32.1657731347365 25.4223194042095
23.664226865263494 9.107773134736501 24.2787731347365
7.2232268652634986 19.9267731347365 8.8187731347365
7.454680595790492 3.1362268652635024 11.1907731347365
5.4427731347365 31.625773134736498 12.691680595790501
27.7037731347365 5.511226865263502 18.348226865263506
21.788773134736502 10.2517731347365 9.891226865263498
25.4097731347365 30.645319404209502 28.1067731347365
24.875773134736498 31.7837731347365 1.7242268652634962
10.657226865263503 7.708680595790497 6.7447731347365
11.845680595790498 6.3497731347365 19.7507731347365
24.5582268652635 30.648226865263503 28.5347731347365
24.8293194042095 5.3262268652635 21.0353194042095
28.931226865263504 11.0767731347365 21.2207731347365
17.750226865263507 5.894226865263498 4.742226865263497
12.605226865263496 2.610226865263499 4.3147731347365
2.438226865263495 10.168773134736501 17.302319404209502
23.6982268652635 14.2197731347365 8.101226865263499
5.663226865263503 25.660773134736502 18.8817731347365
22.1647731347365 19.7313194042095 29.276226865263503
13.6407731347365 6.542226865263501 19.1707731347365
26.7777731347365 18.8877731347365 14.184773134736501
12.864226865263497 5.948680595790506 8.1767731347365
24.026226865263503 3.0907731347364997 4.162226865263499
21.8997731347365 16.4037731347365 7.464226865263498
8.0107731347365 7.8427731347365 26.866226865263506
15.607773134736501 12.8292268652635 26.308773134736498
13.360226865263499 8.507226865263497 12.4632268652635
24.1447731347365 31.4817731347365 9.696680595790497
19.977773134736502 11.8992268652635 26.1917731347365
2.249226865263502 1.9452268652634999 19.2717731347365
5.972773134736499 30.8223194042095 28.729226865263506
22.625226865263507 12.2447731347365 19.723226865263506
22.7417731347365 24.812226865263504 8.1347731347365
6.7537731347365 30.404226865263503 4.001226865263497
27.227226865263496 32.1112268652635 1.4407731347365011
9.2317731347365 32.164226865263494 15.5617731347365
24.494319404209502 12.1537731347365 21.056226865263504
15.843226865263496 32.1757731347365 12.517773134736501
28.4087731347365 29.8577731347365 22.9987731347365
4.9166805957904955 8.0242268652635 17.041226865263503
21.0432268652635 29.434226865263504 15.812226865263504
13.547226865263504 12.6582268652635 29.2167731347365
25.5757731347365 0.7016805957904921 27.1493194042095
21.900680595790504 22.2687731347365 20.4217731347365
12.363773134736501 10.0857731347365 9.504226865263497
2.8007731347365006 2.0777731347365 20.2677731347365
12.4987731347365 26.104226865263506 19.230773134736502
1.5556805957905055 31.3187731347365 23.8682268652635
2.761773134736501 16.4272268652635 18.5777731347365
1.2922268652635012 10.164226865263501 9.3142268652635
9.073680595790506 12.657226865263503 17.3517731347365
28.489680595790503 0.021134326317508112 14.3947731347365
20.949680595790497 14.2257731347365 1.3296805957904922
22.9467731347365 8.091319404209504 23.428680595790496
29.7687731347365 21.958226865263505 29.550226865263504
27.3597731347365 10.293773134736501 22.383226865263502
12.164319404209504 24.242773134736503 19.3477731347365
13.5387731347365 5.177680595790505 10.6447731347365
28.8082268652635 31.9127731347365 13.700226865263495
23.9027731347365 1.8317731347365012 32.1507731347365
17.130226865263502 16.1616805957905 14.1907731347365
23.0127731347365 30.799865673682504 30.4092268652635
3.3967731347365007 30.9617731347365 11.261226865263502
7.4933194042094975 26.494773134736498 1.8492268652634962
28.4937731347365 14.603226865263501 27.063226865263495
25.575226865263495 2.1917731347365006 30.3977731347365
19.5823194042095 4.088680595790493 14.349226865263496
22.0257731347365 5.572773134736501 25.1002268652635
28.1747731347365 4.340226865263496 20.0627731347365
4.799226865263499 3.8512268652634987 12.129226865263497
22.706226865263496 11.671134326317514 19.3917731347365
23.178773134736502 8.1982268652635 26.2932268652635
7.2537731347365 13.3902268652635 18.2707731347365
4.3872268652635 2.634680595790499 25.9662268652635
31.9557731347365 31.1023194042095 18.1802268652635
27.8263194042095 9.9177731347365 20.4367731347365
5.428773134736501 8.739226865263497 24.398319404209502
10.074226865263505 17.1627731347365 23.1377731347365
4.330680595790497 1.056226865263504 26.7343194042095
6.992773134736501 12.618226865263502 17.8267731347365
15.3962268652635 16.8292268652635 27.708226865263505
21.0237731347365 15.230226865263496 13.981680595790493
19.1757731347365 22.8577731347365 9.244680595790499
10.5597731347365 6.333680595790497 26.919773134736502
25.0697731347365 8.8617731347365 20.9812268652635
18.947226865263495 30.635226865263498 6.2857731347365
6.559773134736501 7.2787731347365 7.3172268652635
25.9253194042095 22.812226865263504 14.796226865263499
2.0707731347365 17.078226865263495 14.7737731347365
25.1883194042095 7.337226865263496 26.870773134736503
24.395226865263503 1.3692268652634993 3.742226865263497
24.1217731347365 10.488773134736501 27.137226865263493
11.421226865263499 28.4047731347365 10.0007731347365
4.934226865263504 27.9692268652635 19.204680595790506
20.513226865263498 14.016226865263498 14.7077731347365
18.9467731347365 4.847226865263501 6.7062268652634955
31.6152268652635 17.087226865263496 21.0427731347365
22.4357731347365 31.4993194042095 3.2162268652635007
6.0267731347365 11.584680595790502 2.1282268652634997
26.750773134736498 31.1562268652635 0.3356805957904925
13.377226865263502 16.0203194042095 26.578226865263495
14.554226865263495 13.263226865263498 29.0577731347365
7.614680595790503 6.2562268652635 18.6947731347365
14.9847731347365 8.554226865263495 19.979226865263506
27.4293194042095 4.282680595790495 21.5237731347365
19.3537731347365 14.5547731347365 18.3807731347365
30.247773134736498 2.3762268652634972 4.6792268652634945
22.236773134736502 31.045226865263494 14.485773134736501
5.585773134736501 7.1447731347365 17.6587731347365
7.5003194042095025 22.3457731347365 10.504226865263497
11.1727731347365 26.805319404209502 12.185226865263495
29.372319404209502 31.577226865263505 24.127226865263502
23.2377731347365 23.1957731347365 22.4037731347365
27.8257731347365 30.026319404209502 15.4572268652635
11.9602268652635 28.2433194042095 11.056773134736499
15.781319404209501 21.857226865263506 11.490226865263502
22.408226865263494 29.1447731347365 15.9587731347365
20.6892268652635 19.826680595790506 30.5977731347365
22.8267731347365 3.0626805957904963 30.4057731347365
20.7317731347365 9.248226865263497 13.3047731347365
30.169773134736502 19.8847731347365 13.549680595790505
24.375226865263507 10.2917731347365 25.047773134736502
25.3797731347365 28.2807731347365 28.0777731347365
29.545226865263494 8.892226865263503 20.550773134736502
4.881680595790499 8.9302268652635 17.6187731347365
24.1002268652635 3.1007731347364995 20.622226865263507
24.683773134736498 25.541773134736502 0.3322268652635003
13.3003194042095 0.9467731347364996 24.6883194042095
24.5197731347365 12.023226865263503 18.485226865263506
26.141226865263498 6.058226865263499 24.5917731347365
23.3577731347365 4.113773134736499 23.5237731347365
22.8167731347365 13.1947731347365 11.105226865263496
12.232773134736501 7.483226865263497 18.4417731347365
1.9832268652634966 2.0122268652635 26.6622268652635
11.5277731347365 5.110226865263499 9.715226865263496
13.785226865263503 13.187226865263504 22.1682268652635
6.796226865263499 26.88668059579051 18.4542268652635
19.715226865263496 29.8652268652635 16.9543194042095
11.6387731347365 0.9696805957904928 19.3817731347365
21.3652268652635 7.766680595790504 28.559226865263504
24.5187731347365 2.3156805957904965 15.1023194042095
17.891226865263498 4.1806805957905055 31.5983194042095
0.21277313473649961 12.152773134736501 10.904680595790495
20.3767731347365 8.568226865263505 25.0497731347365
1.9572268652635003 11.886226865263502 9.570680595790506
18.2417731347365 4.415680595790505 4.2787731347365
10.067680595790506 13.056680595790496 15.685226865263495
15.4557731347365 27.3507731347365 26.861226865263497
24.5817731347365 4.2622268652635 0.2872268652634986
12.327226865263505 11.1982268652635 25.539226865263494
3.0456805957905004 8.388226865263498 17.792226865263494
29.9737731347365 31.2587731347365 23.910773134736502
1.7857731347365 20.092226865263505 16.6742268652635
2.2587731347365008 5.241226865263499 20.0792268652635
7.3552268652634964 19.9627731347365 11.630226865263502
2.096226865263496 4.9437731347364995 19.256226865263493
20.492226865263497 28.4613194042095 19.009226865263493
26.3773194042095 30.3237731347365 16.14268059579051
16.1717731347365 24.6937731347365 28.027226865263493
20.3172268652635 9.5537731347365 25.3807731347365
20.4417731347365 3.684226865263504 0.7822268652635032
9.7207731347365 10.5967731347365 16.8827731347365
20.3677731347365 6.9907731347365 20.818680595790497
5.386226865263502 9.319226865263495 19.1187731347365
25.7627731347365 3.1892268652634996 0.4316805957904961
25.876773134736503 31.3297731347365 26.715226865263496
12.203773134736501 31.0457731347365 17.7222268652635
21.8657731347365 12.537319404209502 11.542226865263501
13.6867731347365 6.194680595790501 17.577226865263505
3.650226865263498 4.960773134736501 19.735226865263506
22.9692268652635 11.059680595790496 20.2177731347365
2.603226865263501 5.494226865263499 15.3497731347365
7.857773134736501 11.9867731347365 3.8872268652635
29.9507731347365 25.126226865263497 30.753226865263507
17.599773134736502 28.3232268652635 5.337226865263496
25.383226865263502 31.9937731347365 28.1337731347365
3.902773134736501 17.6857731347365 15.729226865263499
6.300773134736501 26.552773134736498 18.102226865263496
15.684226865263504 5.2712268652635 2.8597731347365
2.424226865263499 22.0187731347365 22.7547731347365
8.799226865263499 24.7513194042095 19.5237731347365
16.9872268652635 6.650680595790504 4.675773134736501
16.260226865263498 6.305226865263499 5.594680595790493
25.6993194042095 13.1372268652635 20.562226865263504
23.9947731347365 31.5517731347365 30.155226865263494
17.3857731347365 24.288226865263503 26.6367731347365
13.365680595790494 1.5796805957904922 3.6496805957904996
10.459773134736501 28.279226865263503 12.1197731347365
28.979226865263506 8.1132268652635 22.0773194042095
27.8172268652635 28.8427731347365 10.8867731347365
19.9067731347365 16.4987731347365 18.270226865263503
15.2757731347365 23.708226865263505 12.229226865263499
31.3112268652635 2.313680595790501 24.251773134736503
15.037226865263499 16.386226865263502 28.3643194042095
11.005680595790494 1.7372268652635015 16.628226865263507
28.1527731347365 12.226226865263499 20.8467731347365
31.0337731347365 2.6137731347364994 5.4833194042094995
25.325226865263495 22.1832268652635 12.148226865263503
9.484226865263501 19.848226865263506 8.226680595790498
12.282226865263503 28.455226865263505 24.78886567368251
23.122319404209502 19.6937731347365 14.6023194042095
18.148226865263503 7.8377731347365 4.276226865263503
25.9237731347365 26.211226865263505 21.2777731347365
17.1447731347365 22.1097731347365 9.5577731347365
25.9577731347365 15.918226865263499 2.5282268652634983
21.6643194042095 10.694226865263495 12.2627731347365
13.738680595790498 5.239226865263497 19.228134326317516
6.439680595790506 3.6406805957904993 7.8307731347365
8.5377731347365 25.930773134736498 16.607226865263506
30.5582268652635 24.2267731347365 12.8557731347365
9.028680595790505 10.020773134736501 16.016226865263498
26.7037731347365 24.3437731347365 22.0847731347365
22.0017731347365 28.3397731347365 17.2387731347365
23.553226865263504 7.1727731347365005 23.9572268652635
13.1087731347365 26.7197731347365 16.206226865263496
23.9337731347365 20.209226865263496 13.2757731347365
7.5397731347365 14.811680595790506 2.527773134736501
18.2303194042095 0.07577313473650094 19.5907731347365
7.276226865263503 10.5092268652635 20.306226865263504
18.1946805957905 3.8562268652635012 5.341226865263501
30.3547731347365 0.23568059579049816 23.2303194042095
23.7327731347365 3.4867731347365005 5.810226865263495
8.616680595790498 20.5942268652635 12.7042268652635
8.7497731347365 28.6173194042095 7.815773134736501
23.462226865263496 10.5067731347365 21.604226865263506
27.7407731347365 5.123680595790503 12.010226865263498
6.504226865263497 20.0917731347365 8.572680595790501
14.465319404209499 26.0792268652635 8.364226865263497
21.688226865263495 6.103226865263501 2.267773134736501
19.3777731347365 10.026226865263503 25.007226865263497
22.673226865263494 20.6477731347365 15.487226865263501
26.703226865263495 1.3932268652635003 9.3872268652635
16.8033194042095 25.2633194042095 7.123226865263497
10.199226865263505 27.9597731347365 9.909226865263498
25.7757731347365 15.804226865263495 28.5947731347365
17.911226865263494 28.744226865263506 6.2572268652634975
12.788226865263503 14.029226865263503 24.3717731347365
22.7513194042095 2.8241343263175054 12.2797731347365
27.1077731347365 4.114773134736501 11.0747731347365
17.6817731347365 26.5677731347365 25.101226865263506
18.907226865263503 18.3887731347365 19.1742268652635
13.424680595790505 16.7907731347365 23.9377731347365
17.934226865263504 27.7312268652635 9.0107731347365
26.7667731347365 31.7986805957905 2.100680595790493
26.8293194042095 2.4932268652635017 14.8597731347365
25.468319404209502 2.6553194042095036 5.090680595790502
19.3047731347365 1.3216805957904967 2.578773134736501
10.4097731347365 24.9872268652635 8.745226865263497
13.6297731347365 8.3202268652635 12.895680595790495
16.8717731347365 5.696680595790497 21.253773134736498
25.992773134736503 18.925226865263504 2.596226865263496
23.1403194042095 31.4217731347365 0.09768059579049293
12.581680595790502 16.334226865263496 22.825226865263495
8.6556805957905 25.500226865263507 3.4117731347364995
21.0673194042095 12.6837731347365 22.132226865263497
6.897226865263498 0.23422686526350134 30.1397731347365
24.5942268652635 8.855226865263496 16.3927731347365
3.2072268652635003 19.005226865263502 6.8622268652635015
7.821226865263505 2.624226865263502 12.461319404209501
18.1237731347365 25.764319404209502 28.2493194042095
7.022680595790504 6.616226865263499 5.4572268652635
25.327226865263505 21.253226865263507 2.8722268652634995
26.8187731347365 8.223226865263499 3.7977731347365005
1.8957731347364994 1.2867731347364995 5.4837731347365
25.045226865263494 30.256226865263493 28.5147731347365
11.3517731347365 14.257680595790504 12.273680595790495
26.611773134736502 16.7117731347365 29.058773134736498
29.4663194042095 17.421319404209502 18.400226865263498
24.5743194042095 6.208226865263498 3.315773134736501
0.6902268652635044 18.303226865263504 15.876226865263497
13.0737731347365 4.490226865263502 12.379226865263497
0.8097731347365009 26.503773134736498 6.345680595790498
15.5837731347365 5.854680595790498 22.5617731347365
26.105773134736502 6.517680595790495 21.618680595790508
23.605680595790503 7.992134326317512 25.949226865263505
10.5537731347365 0.8956805957904947 20.8657731347365
13.349226865263496 3.6722268652635037 11.6907731347365
17.5137731347365 20.396226865263493 10.228319404209504
2.3467731347365 12.233226865263497 11.6987731347365
23.2487731347365 0.4672268652634983 11.132226865263497
1.0487731347365 9.072226865263495 25.1937731347365
27.6473194042095 22.239680595790503 8.5197731347365
15.621226865263502 4.5577731347365 19.620226865263497
12.145773134736501 4.989773134736501 8.8442268652635
30.0907731347365 8.770319404209499 18.14868059579051
28.194226865263495 3.975226865263501 21.1793194042095
18.9697731347365 13.921226865263499 19.953226865263495
16.3567731347365 23.7987731347365 9.6847731347365
12.7592268652635 6.020773134736499 10.465680595790502
20.473226865263506 30.7497731347365 17.7613194042095
17.327226865263505 26.590319404209502 18.9597731347365
20.3903194042095 24.9297731347365 8.4867731347365
12.4007731347365 30.994226865263506 26.6017731347365
18.256226865263493 24.6337731347365 26.8487731347365
1.642773134736501 8.3812268652635 15.904226865263503
32.1487731347365 10.579319404209503 30.6063194042095
10.900226865263498 26.311773134736498 10.032680595790495
23.4017731347365 20.7853194042095 23.7867731347365
30.0123194042095 0.41268059579050487 23.5603194042095
5.001773134736501 20.259226865263493 7.707773134736501
31.5637731347365 2.1312268652635 6.535226865263503
7.439680595790506 11.090226865263496 17.6127731347365
23.2717731347365 4.0907731347365 20.220226865263506
16.4787731347365 13.1877731347365 29.4182268652635
19.9023194042095 15.583680595790497 20.750773134736498
4.2652268652635 21.574226865263505 8.5897731347365
20.789226865263494 14.805680595790506 16.9307731347365
11.348226865263499 28.3467731347365 19.8857731347365
7.008226865263502 9.4037731347365 28.741226865263506
23.1122268652635 0.9092268652634985 31.6093194042095
30.473226865263506 7.869226865263499 18.8303194042095
6.658226865263501 23.735226865263506 18.483773134736502
12.8262268652635 9.0092268652635 10.0107731347365
20.980226865263496 1.4107731347365 12.732226865263499
13.4422268652635 11.0317731347365 26.8993194042095
22.7817731347365 1.2217731347365 3.9352268652634947
22.0552268652635 31.377865673682507 15.941226865263495
29.7807731347365 6.4227731347365005 18.7827731347365
13.2337731347365 12.4727731347365 30.083226865263505
0.3037731347365007 17.0732268652635 20.3227731347365
29.581319404209502 17.1127731347365 17.658226865263494
7.877680595790494 24.4047731347365 2.248226865263497
25.504226865263497 3.6262268652634972 12.334226865263496
10.727680595790503 15.4797731347365 28.9527731347365
15.345226865263498 27.812773134736503 28.8317731347365
9.1952268652635 0.6312268652634998 16.817680595790506
18.1367731347365 27.239226865263497 6.716773134736501
10.556226865263504 6.6676805957905 28.0083194042095
14.365226865263502 8.0797731347365 23.5317731347365
27.998773134736503 1.5747731347364997 13.2227731347365
3.8492268652634962 9.159226865263498 20.1982268652635
27.274226865263493 9.188226865263495 6.376226865263497
27.911226865263494 9.8937731347365 19.3947731347365
6.8527731347365 11.9266805957905 16.2807731347365
8.5537731347365 27.095226865263506 18.0732268652635
18.708226865263505 4.979226865263499 31.4687731347365
2.870773134736501 29.133226865263502 12.9087731347365
5.139773134736501 6.633226865263502 18.0853194042095
23.258226865263502 2.0577731347365003 29.0697731347365
20.9917731347365 28.3232268652635 20.4452268652635
26.4087731347365 22.4597731347365 19.6827731347365
10.3692268652635 23.5462268652635 19.4977731347365
20.7127731347365 32.0247731347365 15.2222268652635
6.6067731347365 6.258680595790494 26.4203194042095
20.1327731347365 3.800226865263504 16.337226865263496
10.0997731347365 28.7833194042095 17.044134326317504
27.3873194042095 11.142773134736501 17.5587731347365
27.482226865263506 29.1737731347365 0.2446805957904985
24.8193194042095 1.8892268652635025 1.5386805957904954
9.2047731347365 8.806226865263504 19.678226865263504
27.8237731347365 9.425226865263504 7.255226865263502
23.003226865263507 0.6326805957905037 13.020226865263503
3.050680595790496 26.803865673682495 11.205226865263505
8.7652268652635 25.414226865263494 18.8657731347365
30.8977731347365 6.6997731347365 6.685226865263495
20.947226865263495 5.184773134736501 22.4023194042095
29.66668059579051 6.173226865263501 25.4037731347365
21.397226865263498 11.9967731347365 22.224773134736502
21.7653194042095 2.5477731347365005 15.292226865263501
20.4357731347365 7.6637731347365 2.0602268652634947
2.9167731347365002 28.058319404209502 10.051226865263494
31.741226865263506 0.07477313473649971 3.8262268652635
21.8927731347365 11.982226865263499 20.544226865263504
27.4733194042095 30.8987731347365 14.602226865263496
21.9207731347365 6.311680595790506 25.3567731347365
19.3917731347365 6.8953194042094985 0.6206805957905033
21.3082268652635 13.1667731347365 9.3442268652635
23.3627731347365 6.066226865263495 3.8817731347365
9.463773134736499 6.915773134736501 31.185226865263495
13.857226865263499 28.149226865263493 17.567773134736502
17.4782268652635 9.7207731347365 4.641680595790504
25.242226865263497 4.5612268652634995 23.2177731347365
2.884680595790499 2.851680595790498 24.1317731347365
27.0578656736825 1.8512268652634987 10.241134326317507
10.0687731347365 31.3287731347365 10.7686805957905
28.8073194042095 22.4527731347365 13.641226865263498
17.497226865263507 16.3687731347365 13.662319404209502
27.1827731347365 1.6992268652635047 9.7837731347365
29.693226865263505 30.155226865263494 11.3437731347365
27.9427731347365 3.1596805957905048 14.951680595790492
26.4547731347365 3.1326805957905037 31.9217731347365
16.303226865263504 6.651226865263503 0.9322268652634946
7.367134326317512 12.535680595790495 19.0287731347365
29.9452268652635 10.669680595790496 19.6517731347365
31.6433194042095 30.703319404209502 17.4967731347365
28.3437731347365 24.6217731347365 31.3197731347365
18.3277731347365 5.325680595790502 4.1586805957905
26.500226865263507 14.4047731347365 9.8337731347365
30.151319404209502 23.1077731347365 10.0647731347365
13.965226865263496 23.819226865263495 18.2517731347365
21.2207731347365 0.32122686526350464 13.081773134736501
17.428226865263504 24.910773134736502 9.910226865263503
14.8297731347365 12.7742268652635 25.6457731347365
29.024226865263493 17.3707731347365 1.6282268652634997
2.9322268652634946 9.889226865263502 23.9787731347365
26.6797731347365 17.2537731347365 2.5172268652635026
29.614773134736502 21.041226865263503 6.736226865263497
27.7312268652635 31.113226865263506 10.9167731347365
21.3232268652635 11.669226865263504 22.1737731347365
18.220226865263506 12.3077731347365 18.1707731347365
25.9182268652635 28.4113194042095 13.080226865263505
10.6297731347365 4.441773134736501 29.634226865263493
27.910773134736502 7.213773134736501 6.967226865263498
1.6312268652634998 17.641226865263498 19.399226865263493
26.641226865263498 2.7672268652635026 20.5923194042095
18.045226865263494 29.9477731347365 6.569773134736501
24.208226865263505 5.5257731347365 22.8807731347365
12.527773134736501 17.6853194042095 24.9667731347365
12.043226865263499 17.8202268652635 27.324226865263505
11.6987731347365 12.4127731347365 26.8267731347365
20.6647731347365 4.543680595790505 13.679226865263495
23.480226865263496 22.026226865263503 7.276226865263503
23.8767731347365 7.554319404209497 24.6583194042095
15.4867731347365 22.8907731347365 7.636226865263502
24.599226865263496 4.793226865263499 2.5212268652635004
11.4197731347365 7.9146805957905 9.538226865263503
21.1927731347365 28.002226865263502 8.120226865263497
8.429226865263495 5.2537731347365 8.645226865263503
29.0737731347365 13.581773134736501 29.240680595790508
29.9343194042095 29.025226865263498 22.0687731347365
8.2047731347365 21.4787731347365 13.1706805957905
21.661226865263494 17.9487731347365 29.349773134736502
26.424319404209502 9.605226865263496 17.393226865263493
31.056773134736503 26.0777731347365 7.139134326317503
4.3507731347364995 19.7357731347365 5.159680595790505
8.892773134736501 13.094680595790493 18.1167731347365
15.5732268652635 17.8317731347365 30.2597731347365
26.352226865263496 4.184773134736501 23.4062268652635
9.247773134736502 15.1766805957905 16.5987731347365
7.9787731347365 25.178226865263504 31.9553194042095
8.7303194042095 14.1937731347365 2.0781343263175103
21.1947731347365 15.960680595790507 5.7607731347365
21.6097731347365 24.4212268652635 7.1697731347365
12.220680595790498 5.9757731347364995 29.1333194042095
18.8847731347365 28.2723194042095 21.669773134736502
20.649226865263493 7.9867731347365005 3.3812268652635
27.5513194042095 9.154226865263503 25.688226865263495
10.389773134736501 26.601226865263506 12.142226865263503
27.039226865263494 11.865226865263502 19.0827731347365
26.555773134736498 12.8842268652635 19.3367731347365
22.727773134736502 21.040134326317514 16.3292268652635
22.1627731347365 27.017319404209502 10.578226865263495
6.5187731347365006 13.865226865263502 31.8183194042095
8.7577731347365 10.936680595790506 15.9117731347365
17.7843194042095 14.785226865263503 17.742226865263497
25.879226865263497 8.5427731347365 26.221319404209503
27.285773134736502 32.0172268652635 28.770319404209502
6.844773134736501 31.2727731347365 30.973226865263506
22.8067731347365 25.417226865263494 8.5077731347365
2.333226865263498 10.1187731347365 18.9117731347365
28.246226865263502 11.156680595790505 20.7222268652635
27.0792268652635 18.944226865263495 13.306226865263504
7.660226865263503 13.740226865263502 18.6603194042095
23.7157731347365 22.172773134736502 22.0243194042095
16.360319404209502 27.7767731347365 4.472680595790493
22.2803194042095 16.706226865263496 6.3757731347365
28.7102268652635 28.997773134736498 12.4517731347365
16.1397731347365 22.1127731347365 9.5287731347365
23.393226865263493 24.0697731347365 9.1467731347365
15.520680595790495 12.206319404209498 27.7218656736825
27.3247731347365 4.6117731347365005 12.0677731347365
7.096226865263496 4.6586805957905 10.644226865263498
14.0582268652635 31.092680595790497 1.5617731347364998
23.2737731347365 30.3597731347365 12.0997731347365
16.9847731347365 30.0877731347365 12.950226865263495
19.0507731347365 4.3962268652635 4.203226865263495
25.910773134736502 22.0867731347365 14.702226865263505
3.5637731347365005 31.3327731347365 29.2553194042095
25.2053194042095 5.808226865263499 10.0277731347365
9.0797731347365 8.6387731347365 18.816226865263495
12.0797731347365 31.8597731347365 1.6257731347364999
26.1017731347365 6.306773134736501 17.9097731347365
22.1323194042095 6.028226865263498 28.0827731347365
10.5067731347365 20.6957731347365 12.065226865263504
15.989226865263497 9.742226865263497 9.026226865263503
3.6837731347364997 27.973226865263506 12.924680595790505
22.9452268652635 22.6647731347365 23.8307731347365
24.870226865263497 1.3657731347365 5.6927731347365
30.263865673682503 18.0473194042095 17.395226865263503
17.325226865263495 14.3692268652635 15.3367731347365
26.3307731347365 28.6892268652635 14.181226865263504
20.470226865263506 7.077226865263505 1.7332268652634966
23.4723194042095 23.4103194042095 21.9767731347365
6.254773134736499 2.8256805957905016 26.598226865263506
28.184226865263504 19.864680595790503 11.255226865263502
7.7797731347365 5.4092268652634985 5.2017731347365
11.0837731347365 25.9127731347365 16.3577731347365
10.245226865263497 1.9332268652634994 5.117226865263497
12.436680595790506 30.300773134736502 18.0917731347365
15.617226865263497 8.1327731347365 19.0237731347365
13.1922268652635 17.2387731347365 25.1947731347365
27.6323194042095 19.839226865263505 0.7972268652635037
9.228226865263501 26.305773134736498 8.6663194042095
21.0167731347365 7.439680595790506 20.577680595790497
12.855226865263496 3.8096805957904962 10.742680595790503
24.660773134736502 6.584226865263496 19.352226865263496
21.367226865263497 3.1092268652635013 23.352773134736502
24.6647731347365 31.6533194042095 10.728226865263501
0.7972268652635037 18.1813194042095 15.0457731347365
27.3877731347365 31.932226865263495 14.696226865263505
3.141226865263498 17.2377731347365 16.104226865263506
29.8177731347365 12.1867731347365 28.2627731347365
20.9443194042095 6.490226865263502 26.4627731347365
13.599680595790502 24.5747731347365 7.3077731347365
12.5687731347365 5.284680595790505 19.7357731347365
5.5182268652635 29.830226865263505 11.057226865263495
29.2217731347365 8.209226865263496 5.1507731347365
13.5407731347365 27.8773194042095 27.354226865263506
30.7992268652635 20.9302268652635 14.645319404209499
26.4817731347365 6.709226865263496 27.8273194042095
26.971226865263496 22.3067731347365 23.768226865263493
11.561773134736502 8.3397731347365 9.861226865263497
25.678680595790496 7.626773134736501 24.872226865263507
