21.3297731347365 31.181773134736503 15.214226865263498
20.7467731347365 19.0047731347365 15.8637731347365
10.4407731347365 24.3857731347365 2.6377731347365003
12.072226865263495 18.848226865263506 30.3232268652635
4.3232268652635 30.1157731347365 28.5543194042095
15.8787731347365 11.627226865263502 22.404226865263503
12.206773134736501 20.4307731347365 5.321226865263505
8.266680595790504 16.9897731347365 29.364773134736502
8.802680595790505 25.122773134736498 31.699226865263505
8.699226865263505 16.2566805957905 7.313226865263495
2.3892268652635025 28.994773134736498 14.0837731347365
16.447226865263495 29.4267731347365 27.1353194042095
13.1657731347365 2.0812268652634955 31.861773134736502
21.7567731347365 5.3567731347365 1.0142268652635025
9.078226865263495 25.681773134736503 32.114319404209496
17.389226865263502 12.647226865263498 23.1077731347365
2.7386805957904983 23.1537731347365 7.085773134736501
24.190226865263504 30.215319404209502 13.272226865263498
20.516226865263498 3.371680595790494 23.1243194042095
27.343319404209502 1.1917731347365006 2.5057731347365007
2.316319404209498 22.778680595790505 18.7077731347365
21.2747731347365 6.878680595790499 31.3673194042095
30.9662268652635 21.033226865263494 25.959226865263496
5.299773134736501 15.276226865263503 2.5732268652635
21.949226865263505 30.8017731347365 31.911226865263494
31.2663194042095 30.0743194042095 1.1142268652634968
11.057226865263495 14.0067731347365 8.725226865263501
3.8242268652635047 0.8047731347365001 31.580226865263505
22.214226865263505 28.8867731347365 18.669226865263504
12.148226865263503 2.0852268652635004 10.9707731347365
10.498680595790503 26.7267731347365 10.353226865263501
2.9502268652634953 23.3682268652635 19.2433194042095
10.1967731347365 1.0656805957904965 10.5997731347365
14.3467731347365 29.5667731347365 1.4307731347364996
13.870226865263497 15.969773134736501 31.1993194042095
11.674773134736501 24.361773134736502 21.660226865263503
31.0117731347365 31.7243194042095 0.7152268652634959
14.209773134736501 32.1032268652635 29.333226865263505
0.4216805957905052 29.3427731347365 29.624226865263502
27.1987731347365 19.2217731347365 26.3797731347365
2.2012268652635 20.8897731347365 7.094680595790493
31.1557731347365 16.9842268652635 30.2222268652635
12.2132268652635 29.3937731347365 13.3777731347365
6.7027731347365 12.450226865263495 4.722680595790493
0.16786567368249905 21.8562268652635 24.9457731347365
14.7027731347365 9.806773134736499 12.755226865263502
17.229680595790498 13.267226865263503 5.266226865263498
12.3112268652635 13.4197731347365 11.6222268652635
4.895226865263503 31.500226865263507 27.1447731347365
23.701680595790506 19.4377731347365 8.9747731347365
30.6997731347365 6.4167731347365 30.4217731347365
2.6922268652634997 11.248226865263497 24.081226865263496
17.2432268652635 15.07186567368251 10.059226865263504
20.491226865263506 5.209226865263496 11.827226865263505
15.261226865263502 17.349773134736502 9.129680595790504
3.6652268652634987 22.3232268652635 8.3647731347365
1.7106805957904925 19.4902268652635 27.613773134736498
7.615226865263502 23.2597731347365 29.4297731347365
27.9893194042095 15.7682268652635 29.3193194042095
10.4116805957905 17.7027731347365 31.9632268652635
14.2393194042095 29.8417731347365 28.8897731347365
4.165773134736501 27.181773134736503 30.8407731347365
12.055680595790506 30.1553194042095 8.3647731347365
12.9697731347365 12.419226865263504 7.867773134736501
18.5207731347365 24.049680595790505 6.0762268652635
8.333680595790497 31.4763194042095 15.2857731347365
0.8817731347365001 7.267773134736501 15.0007731347365
7.1217731347365 13.671319404209502 1.0546805957905008
10.1267731347365 2.235226865263499 3.613226865263499
12.7742268652635 15.775680595790504 14.927773134736501
8.821226865263505 8.917226865263501 8.1377731347365
19.8437731347365 22.1577731347365 13.7042268652635
30.791773134736502 19.440680595790496 1.6582268652635008
19.456226865263496 8.546226865263499 30.2127731347365
5.5062268652635 9.0137731347365 27.8503194042095
13.464226865263498 0.7267731347365007 14.0227731347365
5.251773134736501 10.715226865263496 23.4727731347365
14.572226865263495 28.4357731347365 23.5737731347365
4.1676805957905 13.2367731347365 27.8903194042095
2.070680595790506 19.215226865263496 7.3407731347365
3.774773134736501 30.0893194042095 7.9387731347365005
7.7472268652634995 32.104773134736504 8.9177731347365
8.8587731347365 21.3947731347365 30.7047731347365
1.1902268652635044 7.788226865263503 12.548226865263501
0.8822268652634975 32.00322686526351 29.410773134736502
31.8487731347365 25.7997731347365 24.6687731347365
12.866680595790498 8.9692268652635 2.300680595790496
15.1627731347365 3.576680595790492 29.7312268652635
12.080226865263505 4.7642268652635025 14.4253194042095
18.942773134736502 16.4847731347365 18.345226865263506
15.8497731347365 23.155226865263494 27.428773134736502
5.9392268652635 13.3167731347365 26.9443194042095
9.371226865263502 7.1117731347365005 0.22677313473650074
9.572680595790501 16.127226865263502 5.841226865263501
20.1892268652635 6.0367731347364995 18.702226865263505
11.754226865263497 17.392226865263503 6.211680595790497
9.004680595790504 0.2912268652635035 12.8872268652635
9.366680595790498 31.736773134736502 29.772226865263498
12.856226865263501 20.6887731347365 17.8287731347365
31.3547731347365 10.844319404209504 2.1297731347364994
11.1462268652635 6.5197731347365 15.4877731347365
16.416226865263503 16.2222268652635 5.905226865263501
13.532226865263503 28.7617731347365 18.9392268652635
9.480226865263496 14.6587731347365 29.9147731347365
16.7327731347365 1.1297731347364994 31.874226865263502
6.5167731347365 11.8487731347365 23.3352268652635
4.738226865263499 26.7897731347365 28.2723194042095
15.9487731347365 21.0597731347365 13.138226865263498
0.1972268652634952 10.334226865263496 28.251226865263497
16.3487731347365 4.880773134736501 31.9872268652635
14.334226865263496 2.7562268652635 13.4717731347365
28.473226865263506 22.9077731347365 25.1957731347365
26.748773134736503 0.6052268652634964 7.9677731347365
29.719680595790507 15.369680595790499 2.529680595790495
7.361226865263497 29.4103194042095 6.3877731347365
14.8412268652635 13.0977731347365 3.479226865263499
4.8482268652634986 2.8587731347365004 29.6747731347365
13.9497731347365 2.6336805957904943 0.8942268652634979
0.18468059579049623 19.7477731347365 8.1217731347365
10.383226865263502 13.552773134736501 0.9136805957904954
16.2087731347365 24.397226865263498 14.910226865263503
13.582680595790492 15.9487731347365 14.4912268652635
9.0533194042095 16.973226865263506 2.5546805957905008
20.9253194042095 28.0607731347365 17.6757731347365
0.44522686526349986 23.507226865263497 24.8967731347365
7.093680595790502 26.223226865263506 22.2327731347365
12.147680595790504 23.5383194042095 3.5226805957905043
7.3587731347365 29.658226865263494 10.0217731347365
20.0247731347365 25.683773134736498 5.508680595790494
12.798226865263501 11.737680595790493 3.3382268652635005
26.6563194042095 26.6797731347365 7.7912268652635035
1.9486805957905062 10.619773134736501 27.580226865263505
10.3687731347365 20.044773134736502 15.2412268652635
1.2332268652634966 11.919226865263504 32.0727731347365
7.4847731347365 30.420226865263494 30.590319404209502
6.7337731347365 32.113773134736505 28.3543194042095
17.7157731347365 16.553680595790496 27.741773134736498
9.293773134736501 26.3393194042095 9.410319404209499
12.5272268652635 30.008226865263502 19.882226865263497
2.847680595790493 29.6737731347365 13.4407731347365
10.3752268652635 22.3412268652635 30.2803194042095
8.1557731347365 28.5803194042095 10.920226865263501
10.922226865263504 4.4837731347365 14.3303194042095
7.2916805957904955 22.285226865263503 31.0817731347365
20.7687731347365 4.377226865263502 30.7012268652635
23.8093194042095 23.828226865263495 13.270319404209499
10.1162268652635 12.087319404209499 4.5357731347365
18.1947731347365 20.8483194042095 13.110680595790498
16.5267731347365 29.0183194042095 5.5577731347365
6.7957731347365 17.363226865263506 2.5812268652634955
0.7227731347364994 27.5517731347365 9.834319404209499
1.2867731347364995 9.4607731347365 0.16177313473649946
14.221226865263496 11.2652268652635 2.6767731347365
15.860773134736501 0.8996805957904996 7.549680595790505
6.523226865263503 31.6297731347365 26.5863194042095
6.0812268652634955 23.5307731347365 0.8922268652635026
11.558773134736501 10.499680595790494 4.822226865263495
30.530226865263494 9.4057731347365 0.593226865263496
13.766226865263498 10.875319404209502 10.910226865263503
18.105773134736502 20.733773134736502 11.663226865263503
14.0972268652635 16.7987731347365 31.4577731347365
16.058319404209502 26.7656805957905 3.593226865263496
22.7317731347365 30.4697731347365 19.2757731347365
11.6627731347365 13.456319404209498 2.455226865263505
15.7117731347365 5.665226865263499 30.470226865263506
10.8887731347365 30.804226865263495 9.218226865263496
15.4037731347365 19.733773134736502 12.703773134736501
5.6282268652635 18.7716805957905 20.6327731347365
17.345680595790498 20.1032268652635 11.708226865263498
4.236226865263497 28.200319404209502 28.378226865263507
31.7717731347365 25.371226865263502 22.485226865263506
13.505226865263502 23.019226865263498 14.115226865263502
13.9127731347365 14.446226865263505 31.78886567368251
12.984226865263501 17.9407731347365 15.6903194042095
8.979680595790498 7.0152268652635 1.466773134736501
16.5807731347365 14.3147731347365 27.7203194042095
6.5812268652634955 0.47622686526349867 9.1097731347365
15.861680595790503 14.664226865263501 5.1377731347365
14.3007731347365 27.889226865263502 30.0972268652635
7.1807731347365 20.5567731347365 29.190773134736503
21.116319404209502 24.8887731347365 23.896226865263493
10.870226865263497 17.2127731347365 17.6247731347365
10.118319404209497 14.167226865263501 31.244226865263506
2.5276805957904998 22.4487731347365 23.992226865263497
14.052773134736501 16.1648656736825 19.448680595790506
16.744226865263506 16.0293194042095 4.9732268652634986
15.6807731347365 25.080680595790497 13.010226865263498
6.702680595790497 3.651226865263503 9.989226865263497
10.3077731347365 16.167226865263494 29.116226865263506
8.736680595790503 17.613226865263506 0.41977313473650035
16.6712268652635 3.2402268652635016 29.5237731347365
14.8457731347365 17.6183194042095 0.2972268652635037
12.9632268652635 29.6377731347365 24.0307731347365
18.8187731347365 6.2562268652635 10.1767731347365
14.996226865263502 23.209226865263496 13.607226865263499
0.6426805957904946 7.4067731347365005 0.9526805957904969
17.2873194042095 21.4247731347365 28.9597731347365
8.482773134736501 4.674226865263499 10.6892268652635
14.5302268652635 2.6377731347365003 30.405226865263494
9.730226865263496 23.404226865263503 19.7497731347365
9.2507731347365 3.492680595790503 13.137319404209503
14.5057731347365 11.648773134736501 23.9313194042095
20.8267731347365 23.360226865263506 21.369226865263506
26.7446805957905 15.856226865263501 31.0847731347365
21.362680595790508 5.261226865263502 10.4547731347365
29.433319404209502 19.8803194042095 0.34368059579050225
11.7337731347365 26.7563194042095 8.4347731347365
17.107226865263506 12.7977731347365 4.729680595790498
10.117773134736499 12.5357731347365 9.5227731347365
31.8467731347365 19.182226865263495 3.1347731347365
9.9697731347365 3.992680595790503 16.504226865263497
9.9087731347365 23.0627731347365 23.2932268652635
30.3507731347365 19.402226865263493 28.437226865263504
1.0512268652634944 6.793226865263499 1.1587731347365011
5.6537731347365 3.248226865263497 12.5317731347365
9.282226865263503 26.541773134736502 31.0787731347365
17.1187731347365 13.395773134736501 25.5367731347365
10.345226865263498 8.8292268652635 5.7866805957905
28.587226865263496 2.8026805957905054 6.376226865263497
10.350226865263501 30.119226865263506 8.9707731347365
20.311319404209502 17.018226865263493 25.935226865263495
26.6967731347365 14.9817731347365 1.1432268652635003
18.133226865263502 19.369226865263506 13.4967731347365
9.530319404209504 19.3097731347365 3.4127731347365007
7.657226865263503 14.5507731347365 30.7597731347365
1.0892268652634982 28.3873194042095 1.2277731347365002
28.5792268652635 21.947226865263495 27.4857731347365
3.2952268652635013 13.328226865263495 28.065773134736503
7.7257731347364995 1.894226865263498 12.0942268652635
8.8947731347365 30.0677731347365 6.4433194042095
22.346680595790502 1.1897731347365 28.623226865263497
10.2077731347365 5.4606805957904925 12.494319404209502
4.770226865263503 8.9602268652635 28.259226865263493
10.178226865263504 23.277226865263493 30.400226865263498
0.35222686526349634 26.8937731347365 10.075773134736501
7.8617731347365005 8.570319404209503 5.116226865263499
4.016226865263498 6.220226865263498 13.611680595790503
11.403680595790505 1.5372268652634986 16.2197731347365
15.982773134736501 28.8933194042095 28.63068059579051
1.4196805957904957 22.886226865263502 23.4907731347365
5.2017731347365 10.446134326317505 27.029865673682508
11.053680595790496 31.955226865263505 13.535226865263503
16.055680595790506 26.748773134736503 30.6187731347365
8.2177731347365 2.005226865263502 3.4497731347364997
27.187773134736503 17.521226865263493 30.1007731347365
10.200773134736501 15.1967731347365 6.239226865263497
9.560319404209498 3.0397731347364996 12.139226865263502
2.476680595790498 20.7837731347365 9.083226865263498
14.773226865263503 16.7347731347365 9.240226865263502
31.843319404209502 8.1877731347365 24.736773134736502
10.0122268652635 16.7387731347365 7.191226865263495
17.922226865263504 12.485226865263499 5.083680595790497
14.789319404209504 28.4872268652635 4.8427731347365
18.3187731347365 23.605226865263496 5.2132268652635005
18.4537731347365 30.1937731347365 0.03668059579050009
9.453226865263495 17.494226865263506 6.5797731347365005
12.430680595790506 5.796226865263499 11.4022268652635
17.702226865263505 10.494319404209502 7.008773134736501
6.702226865263505 30.163773134736502 6.877226865263502
5.1027731347365 31.250319404209502 6.5527731347364995
14.1177731347365 6.736226865263497 29.3473194042095
31.241319404209502 30.4567731347365 3.3567731347364997
16.067773134736502 17.218680595790502 16.419226865263504
17.5126805957905 6.208226865263498 19.515134326317508
6.183226865263499 10.551319404209497 1.9437731347364995
25.456226865263496 8.009680595790499 29.277226865263493
1.8212268652635046 0.36977313473649964 30.0947731347365
5.9327731347365 7.008319404209498 2.966773134736501
31.3407731347365 20.0457731347365 31.8427731347365
26.6457731347365 0.002680595790494067 5.601226865263499
14.278226865263498 29.5642268652635 22.7827731347365
9.220226865263498 29.057226865263495 24.1747731347365
14.135226865263498 18.8127731347365 16.578226865263495
7.790773134736501 25.772226865263498 22.874226865263502
15.228680595790493 10.5332268652635 5.386773134736501
14.693226865263505 29.081226865263496 20.823680595790506
12.730226865263496 16.8337731347365 2.2872268652634986
26.617865673682502 2.2036805957905017 7.299226865263499
11.5612268652635 0.7122268652634958 13.2207731347365
28.687773134736503 19.834319404209502 26.7233194042095
18.686680595790506 10.3947731347365 9.0577731347365
22.5337731347365 27.5697731347365 17.8717731347365
12.547226865263504 19.6347731347365 31.0987731347365
13.400319404209501 7.056226865263504 15.797680595790496
12.3677731347365 17.9977731347365 4.779680595790495
8.300680595790496 9.186319404209502 5.972680595790493
19.9287731347365 31.802773134736498 30.1443194042095
30.0757731347365 24.4737731347365 29.755226865263502
7.539226865263501 0.9176805957905003 28.1153194042095
5.7012268652635 14.7767731347365 3.3566805957904933
31.503226865263507 16.3697731347365 2.4432268652635045
10.869773134736501 14.5593194042095 5.5137731347365
10.200773134736501 10.3447731347365 7.870680595790503
19.297226865263504 22.6777731347365 15.5117731347365
15.3217731347365 14.8172268652635 2.6382268652634977
29.3743194042095 26.7117731347365 8.8632268652635
13.850680595790493 18.9587731347365 0.9593194042094986
15.581226865263496 5.5777731347365 31.6883194042095
29.436773134736498 24.023226865263503 22.647226865263498
12.276226865263503 11.371226865263502 8.104226865263499
5.527773134736501 16.6567731347365 0.5862268652634981
14.5837731347365 18.3797731347365 0.5783194042094983
30.2663194042095 2.3436805957905023 6.3322268652635
20.141226865263498 1.1476805957905043 8.468226865263496
15.9197731347365 14.081226865263496 25.6682268652635
16.870226865263497 5.364773134736501 6.918680595790505
2.4872268652635015 28.503226865263507 29.176226865263494
8.775226865263498 3.3842268652635 10.400226865263498
24.391680595790504 30.0453194042095 16.7596805957905
26.8292268652635 28.8827731347365 8.5977731347365
9.9362268652635 27.6387731347365 23.2487731347365
30.2293194042095 8.901226865263503 28.671680595790505
19.621226865263502 5.484680595790493 29.3477731347365
0.9416805957905012 31.678680595790496 1.0542268652634945
17.053226865263504 22.7593194042095 5.1662268652635035
19.756226865263493 24.1077731347365 3.6342268652635
11.739226865263497 5.940773134736501 14.6277731347365
20.238226865263506 7.241226865263499 30.811773134736498
23.705226865263505 17.063226865263495 4.6987731347365
3.8557731347365003 31.1557731347365 30.5693194042095
14.782226865263503 12.438226865263495 23.9637731347365
16.576680595790506 4.503319404209503 9.1507731347365
8.801226865263494 25.4057731347365 21.753226865263507
1.4702268652634984 11.1567731347365 31.8413194042095
21.955226865263505 18.3037731347365 7.5212268652635
9.985680595790498 0.9686805957905023 16.697226865263495
12.109226865263501 8.8962268652635 10.130680595790494
9.7192268652635 30.363773134736498 6.4757731347364995
8.877226865263502 29.0487731347365 11.9542268652635
16.6563194042095 0.5237731347364996 30.863226865263506
15.2527731347365 18.0456805957905 16.864226865263497
11.6323194042095 29.4487731347365 21.232226865263506
5.788134326317504 20.7656805957905 8.9082268652635
14.4482268652635 15.7412268652635 16.098680595790498
11.988680595790498 6.513226865263498 13.809773134736501
14.0507731347365 3.5872268652634958 28.769226865263498
1.8117731347364998 13.257680595790504 9.1527731347365
22.2527731347365 14.4847731347365 26.611226865263497
11.4116805957905 20.0373194042095 22.092226865263505
17.4647731347365 18.4062268652635 17.0467731347365
17.7423194042095 13.538226865263503 27.696226865263505
10.816226865263495 27.373773134736503 19.010226865263498
14.5737731347365 5.2372268652635015 30.4272268652635
13.346226865263496 16.0337731347365 15.3307731347365
15.956773134736501 24.5483194042095 3.123226865263497
23.2872268652635 18.0337731347365 5.1247731347365
4.727226865263496 25.1517731347365 30.305773134736498
30.6477731347365 22.424319404209502 25.700226865263495
13.0247731347365 21.3567731347365 16.0527731347365
19.132226865263497 23.7657731347365 21.7493194042095
2.187773134736501 27.065773134736503 29.5043194042095
7.446226865263505 11.2777731347365 2.3627731347365
17.6447731347365 4.807680595790501 6.5762268652635
22.171319404209502 27.8877731347365 15.720226865263498
15.2776805957905 6.767226865263503 27.5817731347365
13.0762268652635 3.3102268652634947 15.728226865263501
13.261226865263502 26.732319404209502 8.944226865263495
0.8172268652634997 17.7477731347365 30.012226865263493
12.6937731347365 5.491680595790498 12.051226865263494
15.976226865263506 18.480773134736502 14.7507731347365
18.3232268652635 25.8507731347365 3.0472268652635037
8.918226865263499 15.691226865263495 7.062773134736501
12.6087731347365 3.888680595790504 11.1417731347365
10.2883194042095 28.1733194042095 13.111226865263497
30.526319404209502 30.677319404209502 3.3882268652634977
2.6636805957904954 31.1157731347365 26.4663194042095
18.848226865263506 31.5677731347365 28.9827731347365
17.2597731347365 23.553773134736502 5.802680595790505
0.5927731347365004 26.117773134736503 12.4082268652635
5.1372268652635 32.1263194042095 10.258226865263502
0.5503194042094997 26.0437731347365 8.581226865263496
6.723680595790498 7.5002268652635 4.7737731347365
3.653134326317513 6.812680595790496 14.172226865263504
6.100226865263501 23.4577731347365 29.2017731347365
24.105773134736502 16.1032268652635 6.569773134736501
4.953226865263495 31.602773134736502 31.8427731347365
8.2977731347365 7.550773134736501 4.239226865263497
23.393226865263493 31.2393194042095 30.7623194042095
27.7127731347365 31.980773134736502 3.3902268652635
18.7833194042095 3.0782268652634954 20.1533194042095
10.242226865263497 6.849226865263496 5.551226865263494
14.6787731347365 30.7133194042095 21.5367731347365
9.555773134736501 22.5157731347365 25.086226865263505
14.7757731347365 15.6337731347365 25.5732268652635
11.168773134736501 7.7652268652635 7.0317731347365005
28.145319404209502 31.807226865263495 1.7132268652635005
7.888226865263498 26.378226865263507 28.370773134736503
10.953226865263495 23.6407731347365 3.6562268652634984
12.227226865263496 6.163319404209499 15.1887731347365
13.3467731347365 3.9022268652635006 14.098226865263499
17.227773134736502 12.6307731347365 25.6303194042095
12.087226865263496 14.304319404209497 26.306226865263504
7.937773134736501 22.8262268652635 1.6121343263175163
9.9572268652635 28.8347731347365 12.532226865263503
5.480319404209499 10.0027731347365 27.244773134736498
15.2562268652635 14.5993194042095 11.246226865263502
10.678226865263504 9.0852268652635 7.075680595790502
15.264773134736501 27.1327731347365 29.5402268652635
6.796680595790505 23.504226865263497 2.456680595790502
18.002226865263502 21.6802268652635 11.5747731347365
29.0603194042095 24.0393194042095 28.550773134736502
21.7407731347365 4.6867731347365 30.619226865263506
26.669773134736502 31.5702268652635 6.556680595790496
10.3627731347365 27.593319404209502 9.925226865263504
9.740226865263502 18.544773134736502 24.727226865263496
5.671773134736501 1.6217731347365003 10.2507731347365
13.9737731347365 3.3797731347364994 15.7467731347365
18.6477731347365 4.1577731347365 31.4163194042095
11.883680595790494 1.1727731347365005 8.624226865263502
12.5972268652635 7.7746805957905 5.305226865263499
9.183319404209502 28.6832268652635 29.5217731347365
11.260226865263498 23.8847731347365 21.7177731347365
4.3087731347365 10.0227731347365 28.2267731347365
30.294226865263504 21.275226865263498 25.9537731347365
26.627226865263502 18.2197731347365 28.15768059579051
23.6922268652635 7.142226865263503 3.7087731347365
18.375226865263507 20.2237731347365 12.3357731347365
3.4086805957905 23.124226865263502 6.034773134736501
18.0747731347365 2.2592268652635 6.5062268652635
7.8367731347365 6.9946805957904985 0.7362268652634967
15.6507731347365 9.151773134736501 10.417226865263501
29.434773134736503 7.243226865263502 0.2982268652635014
2.5062268652635 28.7463194042095 25.8227731347365
9.5867731347365 22.650226865263498 21.380226865263502
6.058226865263499 30.811773134736498 11.4867731347365
1.0316805957905046 18.2863194042095 30.2567731347365
8.400319404209501 22.6063194042095 23.604226865263506
31.608226865263497 20.146226865263493 26.7873194042095
8.782680595790495 26.908226865263494 23.5157731347365
2.661226865263501 6.252226865263502 14.2836805957905
0.6342268652634999 19.757226865263497 10.5377731347365
0.030226865263500713 25.671319404209502 23.5582268652635
9.800226865263504 17.8803194042095 24.8357731347365
20.7693194042095 4.1357731347365 21.7517731347365
14.639226865263502 15.385226865263498 0.5282268652634983
13.673226865263501 10.154773134736502 23.9423194042095
13.685319404209498 2.7456805957905033 14.534226865263498
23.5557731347365 26.3977731347365 15.1707731347365
12.239226865263497 17.2197731347365 1.9362268652634995
29.2967731347365 25.792226865263494 25.075319404209502
28.6347731347365 13.826680595790492 2.401680595790495
12.5917731347365 11.339134326317506 16.4617731347365
2.313226865263495 30.825226865263495 0.6032268652635011
30.116319404209502 27.4467731347365 8.8857731347365
13.072226865263495 15.037226865263499 3.610226865263499
7.170226865263501 18.9217731347365 3.328773134736501
18.3087731347365 6.058226865263499 28.439865673682505
10.302773134736501 14.6757731347365 7.165773134736501
21.1937731347365 5.511226865263502 31.5247731347365
29.374226865263502 14.1757731347365 4.694680595790501
8.7442268652635 15.091319404209504 10.6507731347365
10.7897731347365 24.2297731347365 3.1406805957904993
22.4877731347365 7.867226865263497 25.0863194042095
9.5002268652635 25.7177731347365 24.166226865263503
10.687226865263504 6.5542268652634945 5.5882268652635005
21.8017731347365 17.0882268652635 4.199226865263505
21.5917731347365 31.6297731347365 14.0547731347365
21.239773134736502 5.786226865263501 30.535226865263503
5.3467731347365 29.4722268652635 6.6037731347365
14.833226865263498 17.8617731347365 13.663226865263503
10.043226865263499 10.1417731347365 3.7532268652634997
23.9343194042095 27.6767731347365 12.6312268652635
9.529226865263503 1.0537731347365007 13.848226865263499
9.046773134736501 30.083226865263505 28.378319404209503
16.4602268652635 11.914865673682499 6.356680595790493
29.8467731347365 17.6843194042095 0.25877313473650077
28.0877731347365 17.650226865263498 27.9577731347365
19.041773134736502 18.384226865263493 16.2727731347365
6.360773134736501 14.4882268652635 2.0582268652634994
11.298226865263501 22.9917731347365 22.736226865263497
15.2057731347365 5.0792268652635 29.270319404209502
12.8493194042095 6.725680595790493 29.1693194042095
5.4176805957905 11.2077731347365 1.904226865263503
6.895226865263503 15.7727731347365 7.153134326317513
7.662226865263499 18.2267731347365 3.4662268652635007
10.256680595790499 22.7036805957905 29.734865673682506
29.422773134736502 22.125226865263507 24.519226865263498
15.5587731347365 17.3657731347365 17.4037731347365
15.373773134736501 18.540680595790505 16.4893194042095
7.891319404209501 1.2597731347365002 14.1466805957905
23.898226865263503 18.4033194042095 6.991226865263499
4.049773134736501 7.5577731347365 12.6477731347365
32.1577731347365 18.8107731347365 19.260680595790504
15.659680595790505 20.7297731347365 13.706680595790502
28.553773134736502 17.7797731347365 0.7606805957905038
11.438319404209498 20.1937731347365 7.273226865263503
1.638680595790504 30.0732268652635 30.425773134736502
18.315226865263504 22.7897731347365 13.1947731347365
20.131226865263493 13.413680595790495 26.5247731347365
14.2407731347365 13.870680595790503 25.558773134736498
11.6507731347365 8.992226865263497 4.5002268652635
21.814773134736498 30.748226865263497 15.9657731347365
30.5563194042095 27.1617731347365 12.5907731347365
5.861226865263497 24.292226865263494 30.294773134736502
4.435680595790501 28.3363194042095 0.5647731347364999
9.416226865263503 23.900226865263498 30.2967731347365
11.636226865263502 8.3167731347365 9.2162268652635
4.285226865263503 27.5847731347365 26.8262268652635
6.8996805957905 17.4697731347365 7.047226865263504
28.6862268652635 12.8907731347365 2.2202268652634984
13.261226865263502 16.9842268652635 7.158773134736501
16.1952268652635 3.3116805957905058 7.9717731347365
23.0527731347365 31.9937731347365 0.1972268652634952
18.5702268652635 15.731680595790507 26.557226865263495
15.815226865263504 8.9237731347365 9.562226865263504
20.8097731347365 30.0437731347365 28.0967731347365
11.805680595790506 32.083319404209504 8.892226865263503
9.0577731347365 27.1217731347365 23.6927731347365
27.7067731347365 27.0857731347365 9.654773134736502
17.9067731347365 26.1717731347365 2.773226865263503
11.028226865263498 1.7757731347365002 15.0427731347365
7.5647731347365 10.7072268652635 1.4372268652635043
1.9167731347365002 30.270226865263503 8.671226865263499
1.1967731347364996 29.242680595790503 27.279226865263503
6.229588056844506 18.745680595790503 1.9137731347365001
28.429226865263495 18.564319404209503 31.5427731347365
17.140226865263493 31.994319404209502 30.0067731347365
21.863226865263506 19.6603194042095 6.462226865263496
17.5317731347365 15.598226865263499 24.1857731347365
10.775680595790504 25.849773134736502 22.094680595790507
13.9422268652635 12.938226865263495 4.017226865263503
10.566226865263495 22.8697731347365 25.248773134736503
9.354226865263499 29.562773134736503 9.4037731347365
30.3703194042095 6.345226865263498 11.2772268652635
23.309226865263504 21.589226865263505 8.2222268652635
9.818680595790497 28.441226865263495 31.2687731347365
13.8487731347365 15.203773134736501 2.995226865263497
9.5327731347365 0.498773134736501 16.896226865263493
3.9747731347365 9.7787731347365 31.3877731347365
16.3352268652635 22.2207731347365 27.5343194042095
29.328226865263495 21.314319404209503 28.247773134736498
4.510226865263498 0.4192268652635036 10.9737731347365
9.972680595790493 11.933773134736501 8.1217731347365
16.8307731347365 14.951680595790492 4.9512268652635
15.748773134736501 16.080226865263505 18.4087731347365
3.1702268652635013 7.978226865263501 31.7147731347365
25.9143194042095 0.6382268652634977 6.2592268652635
27.0177731347365 26.7777731347365 1.4292268652634945
10.440226865263504 6.0967731347365 15.100319404209504
17.2437731347365 5.713680595790493 7.606226865263501
1.3096805957904962 22.547773134736502 25.2557731347365
14.681226865263504 17.280226865263494 1.527773134736501
5.4017731347365 29.0653194042095 10.023773134736501
4.464680595790497 21.4457731347365 6.527226865263501
6.043226865263499 30.265226865263493 28.220680595790498
11.499226865263502 13.0427731347365 31.2627731347365
3.9267731347365 10.5767731347365 30.621226865263502
13.309773134736501 4.986226865263497 29.0513194042095
7.946226865263505 17.753319404209503 32.0192268652635
15.868226865263502 11.464226865263498 6.5527731347364995
21.3567731347365 18.9033194042095 7.017226865263503
26.988773134736498 23.6477731347365 25.7527731347365
12.1277731347365 10.8437731347365 25.5927731347365
31.780226865263494 18.0537731347365 31.604226865263506
28.7853194042095 32.0087731347365 4.898226865263503
12.3207731347365 20.8767731347365 16.2077731347365
14.280773134736501 12.1327731347365 27.8447731347365
13.2472268652635 20.3502268652635 24.166773134736502
2.9362268652634995 9.181226865263504 11.495773134736499
7.981226865263501 29.3487731347365 4.835773134736501
31.0637731347365 7.599226865263496 28.655226865263494
19.161226865263494 29.8333194042095 31.6277731347365
15.383680595790494 21.1397731347365 13.3207731347365
14.1187731347365 15.8357731347365 9.0117731347365
10.498680595790503 7.4313194042095 7.109226865263501
18.8887731347365 29.991319404209502 15.0287731347365
18.382226865263497 7.642680595790495 0.7382268652634991
27.143226865263493 18.0497731347365 30.186773134736498
3.117226865263497 28.7197731347365 30.3217731347365
30.814773134736498 26.27413432631751 22.2777731347365
0.5857731347365007 0.2877731347365007 31.3017731347365
16.3977731347365 21.853680595790507 14.7667731347365
14.544226865263504 12.819226865263495 9.0967731347365
9.492226865263497 14.393319404209503 5.6827731347365
4.721226865263496 30.506226865263493 10.7412268652635
15.728226865263501 11.2667731347365 7.744226865263499
9.651680595790495 13.9687731347365 5.171319404209502
28.4937731347365 13.993226865263502 4.887680595790499
7.091680595790493 21.5483194042095 13.478680595790493
8.3177731347365 17.1617731347365 24.598226865263506
19.4757731347365 6.017680595790495 30.832865673682505
6.8787731347365 8.630680595790494 5.028865673682503
18.0377731347365 1.6882268652634949 26.474773134736502
11.023773134736501 20.806226865263504 22.2827731347365
6.1952268652635 30.133226865263502 8.3977731347365
15.188226865263495 29.491226865263506 1.5317731347365005
13.8877731347365 16.3837731347365 8.264773134736501
2.9762268652634987 0.5672268652634997 30.748773134736503
4.354226865263499 14.1307731347365 23.7192268652635
6.431773134736501 25.1213194042095 27.548226865263494
17.068226865263505 14.3967731347365 27.840680595790502
28.3107731347365 21.756226865263493 25.6152268652635
28.464226865263505 17.678226865263504 32.1082268652635
9.9602268652635 31.9453194042095 10.916226865263503
16.791773134736502 10.394680595790504 25.195680595790506
14.964226865263498 21.974773134736502 13.8407731347365
15.471319404209499 7.229226865263499 31.062773134736503
14.714226865263498 15.197226865263495 19.2932268652635
10.879680595790504 5.908226865263501 15.0137731347365
17.272226865263498 21.4247731347365 11.6617731347365
14.155773134736501 13.0297731347365 8.6192268652635
16.7897731347365 21.1817731347365 12.930773134736501
15.275226865263498 31.139226865263502 28.2203194042095
13.6552268652635 21.718226865263496 13.0837731347365
10.0627731347365 29.483773134736502 30.114773134736502
7.71786567368251 31.5987731347365 8.936773134736502
12.8687731347365 10.504226865263497 23.5167731347365
22.078226865263495 26.8193194042095 12.799226865263499
21.9332268652635 16.4997731347365 6.2697731347365
30.232319404209502 18.7987731347365 31.686319404209502
14.1257731347365 24.4587731347365 27.8427731347365
12.989680595790503 19.223226865263506 1.225226865263501
14.6577731347365 19.739226865263497 13.395226865263503
12.248680595790503 1.2737731347364996 23.000226865263507
10.1922268652635 8.994773134736501 9.417226865263501
26.163773134736502 18.834226865263496 0.03577313473650179
6.617226865263497 22.931226865263504 31.937773134736503
10.5747731347365 25.2837731347365 1.2672268652635026
6.349226865263496 29.355226865263496 28.8817731347365
8.306773134736499 6.7697731347365 0.3392268652634982
8.232680595790498 31.339226865263505 20.9343194042095
12.6217731347365 30.300226865263504 2.0312268652634984
17.670226865263494 22.8927731347365 16.285226865263503
2.687773134736501 0.32577313473650094 9.681680595790496
12.8022268652635 18.977680595790503 18.4477731347365
9.453680595790502 9.080680595790497 8.292226865263501
5.844680595790493 12.3527731347365 0.43222686526349463
11.860680595790498 8.040226865263499 15.568226865263505
1.5992268652634962 28.8198656736825 12.2457731347365
5.0762268652635 0.2952268652635013 20.2282268652635
11.0547731347365 27.2932268652635 23.313226865263495
8.401226865263503 23.7787731347365 1.8297731347365005
13.671773134736501 18.1097731347365 13.055773134736501
8.2776805957905 29.9182268652635 30.3897731347365
19.1592268652635 20.869226865263506 13.3907731347365
20.1527731347365 29.532226865263503 27.949226865263505
10.889773134736501 4.4977731347365 11.6707731347365
15.310226865263495 20.2497731347365 12.902773134736501
22.3157731347365 17.5507731347365 7.002680595790494
12.2626805957905 19.685226865263495 6.6807731347365
17.0037731347365 25.697226865263495 28.861226865263497
9.9942268652635 8.186773134736502 1.428226865263504
12.978226865263501 7.483680595790503 6.144226865263498
9.1577731347365 9.209773134736501 1.6052268652634964
17.2257731347365 1.0216805957904995 20.753773134736498
30.4692268652635 16.462226865263496 30.138226865263498
11.325773134736501 23.7233194042095 23.489226865263497
18.9062268652635 30.8193194042095 29.0217731347365
17.2607731347365 21.300680595790496 13.422680595790496
15.341773134736501 11.619773134736501 11.594680595790493
18.024226865263493 3.0287731347365003 9.6772268652635
9.4253194042095 10.3107731347365 9.2622268652635
27.7267731347365 16.4697731347365 30.634226865263493
10.350680595790493 22.996226865263502 0.39322686526350026
14.341773134736501 0.8361343263175058 27.3673194042095
13.868319404209497 21.8917731347365 3.8296805957904922
24.1937731347365 26.690226865263504 1.3132268652634949
27.1853194042095 21.529226865263503 6.037226865263499
19.763226865263498 28.8473194042095 16.9917731347365
6.989773134736501 17.785773134736502 3.3522268652634963
5.4562268652634955 28.0852268652635 28.7072268652635
9.5737731347365 19.268226865263493 25.200226865263495
1.9802268652634964 11.479226865263499 0.28222686526350316
20.748226865263497 2.201680595790492 30.4217731347365
25.8623194042095 19.0217731347365 0.8366805957904973
15.221226865263496 28.248773134736503 28.227226865263496
2.799226865263499 21.218680595790502 5.7867731347364995
18.4877731347365 2.8382268652635005 11.9457731347365
30.7463194042095 7.244226865263499 27.9523194042095
27.437773134736503 25.916226865263503 1.968226865263496
18.8172268652635 2.226680595790498 6.717226865263498
10.033319404209504 13.6937731347365 24.1297731347365
23.6307731347365 19.3107731347365 9.6372268652635
24.7132268652635 0.05322686526350395 16.5006805957905
7.9542268652635 0.5807731347364999 13.1282268652635
12.465226865263496 14.421773134736501 10.615226865263502
2.4727731347364994 0.8797731347364994 0.23622686526349668
25.099773134736502 19.8647731347365 9.273319404209499
14.535226865263503 0.8256805957905016 28.687773134736503
17.7072268652635 4.418134326317514 10.6007731347365
14.791226865263503 21.254226865263497 18.1137731347365
1.7022268652635049 18.7713194042095 10.273226865263503
31.5577731347365 26.455226865263505 7.578226865263495
9.8537731347365 26.4857731347365 7.741226865263499
11.9087731347365 6.327226865263505 15.8962268652635
8.0822268652635 31.163773134736502 29.5087731347365
3.5842268652634957 26.2007731347365 10.287680595790505
27.7267731347365 14.8207731347365 1.485773134736501
24.78868059579051 29.4723194042095 19.8967731347365
0.3557731347365003 19.4077731347365 1.2132268652635005
6.248773134736501 12.7307731347365 23.1947731347365
19.524226865263493 4.6577731347365 21.2807731347365
6.633773134736501 17.101226865263506 18.524226865263493
17.744226865263506 6.348773134736501 10.4157731347365
14.269226865263498 8.4052268652635 11.1646805957905
10.726226865263499 24.5197731347365 0.9203194042095042
8.9632268652635 0.6162268652634992 5.511226865263502
14.264773134736501 6.0002268652635 30.046319404209502
16.4482268652635 13.371680595790494 4.028226865263498
1.4202268652635013 18.9607731347365 1.7222268652635009
11.9662268652635 13.409680595790505 8.544226865263504
5.4056805957905 11.429226865263495 3.908226865263501
6.0852268652635 14.668226865263499 6.4107731347365
13.825773134736501 19.459226865263496 16.755226865263502
17.536226865263494 19.8837731347365 15.8937731347365
11.0092268652635 7.7637731347365 5.251773134736501
26.5087731347365 25.2027731347365 25.141226865263498
10.979680595790498 24.0677731347365 1.6087731347365004
32.092226865263505 6.9557731347365 30.6597731347365
13.996680595790494 1.546226865263499 31.047226865263504
1.5042268652634974 10.2656805957905 27.910773134736502
7.835773134736501 22.7513194042095 2.157226865263503
13.7427731347365 11.4257731347365 7.342226865263498
29.3317731347365 1.5702268652634999 4.120680595790503
6.9357731347365 2.5602268652634947 28.592226865263505
8.738680595790498 2.9492268652635047 13.9343194042095
22.813226865263495 18.179226865263495 4.908226865263501
1.2512268652634972 29.2667731347365 8.382226865263497
8.407226865263503 16.389226865263502 9.1117731347365
16.379226865263497 25.139226865263502 27.7927731347365
23.6173194042095 30.895226865263503 17.346226865263496
30.375319404209502 28.4187731347365 10.286226865263501
22.8177731347365 31.639226865263502 31.7853194042095
14.2437731347365 18.3187731347365 14.0942268652635
3.2512268652634972 28.232226865263506 28.8153194042095
12.621226865263502 9.1557731347365 9.023773134736501
15.7132268652635 5.442680595790506 31.1987731347365
17.5307731347365 4.7887731347365 7.0527731347364995
6.569773134736501 29.5103194042095 12.298226865263501
27.9327731347365 17.438226865263495 1.0347731347365006
11.578226865263495 21.919226865263504 5.9677731347365
30.0683194042095 19.1137731347365 25.5023194042095
17.998226865263497 29.620773134736503 30.306773134736503
17.3507731347365 27.337319404209502 31.0107731347365
13.5182268652635 14.8327731347365 16.0577731347365
22.1273194042095 13.3662268652635 26.2037731347365
1.0602268652634947 9.286226865263501 31.235226865263506
8.943226865263505 6.9647731347365 5.120773134736501
20.3547731347365 3.0477731347365005 29.257226865263497
10.415680595790505 17.006773134736502 6.4307731347365
9.139226865263502 19.741319404209502 6.4947731347365
6.0926805957904975 29.434773134736503 7.6027731347365
21.070680595790506 26.8553194042095 12.9422268652635
6.2132268652635005 29.4583194042095 15.203226865263495
13.8367731347365 9.962773134736501 5.5807731347365
14.1462268652635 3.350226865263501 16.882226865263497
25.212226865263496 29.776319404209502 18.587319404209502
9.611226865263497 30.498773134736503 11.836226865263498
18.291773134736502 16.9177731347365 27.0217731347365
15.930134326317514 22.4362268652635 11.2247731347365
17.515226865263493 10.8297731347365 25.1037731347365
16.5727731347365 22.8957731347365 27.375773134736498
9.9882268652635 15.6937731347365 5.9542268652635
4.276134326317504 31.604226865263506 28.373773134736503
30.9753194042095 25.8352268652635 10.035319404209499
14.416226865263503 29.9727731347365 3.604773134736501
19.6047731347365 1.1652268652634987 31.7987731347365
16.0477731347365 16.1597731347365 24.705226865263505
22.7077731347365 27.9733194042095 19.6397731347365
20.9053194042095 4.671226865263499 29.1407731347365
1.7117731347365002 11.696226865263505 28.3427731347365
12.2137731347365 27.5693194042095 9.0707731347365
7.0837731347365 17.4627731347365 4.252680595790494
6.6607731347365 15.9637731347365 3.792226865263501
9.1587731347365 19.9977731347365 24.033226865263494
31.1643194042095 7.428226865263504 24.8287731347365
9.6857731347365 20.3567731347365 16.9997731347365
12.735226865263499 32.1493194042095 15.7027731347365
32.0737731347365 2.9986805957905034 4.349226865263496
3.684773134736501 19.1622268652635 6.069226865263495
3.161226865263501 26.782319404209503 0.22677313473650074
12.468226865263496 16.1727731347365 9.1937731347365
0.9296805957905008 16.6297731347365 29.7927731347365
30.9283194042095 25.8112268652635 2.6946805957905013
12.710680595790492 13.7132268652635 1.7802268652635007
19.842226865263505 4.8187731347364995 10.2527731347365
27.1853194042095 28.5923194042095 8.3777731347365
12.985226865263499 4.567680595790506 29.340226865263496
19.4542268652635 4.281226865263498 19.9017731347365
22.9467731347365 7.255773134736501 4.191226865263495
2.639773134736501 19.119226865263506 8.709226865263496
29.564773134736498 19.5217731347365 1.107773134736501
29.0327731347365 25.5207731347365 26.7192268652635
31.1603194042095 16.3437731347365 31.9757731347365
8.3867731347365 19.4437731347365 3.7896805957905
10.0967731347365 31.5593194042095 7.150319404209501
17.6517731347365 27.5773194042095 30.254226865263497
29.773226865263503 15.985773134736501 0.9036805957905045
24.3427731347365 31.072226865263495 19.2927731347365
17.5667731347365 0.41677313473650024 20.5707731347365
7.956773134736501 19.592226865263505 2.8717731347365003
6.5412268652635035 15.461226865263498 4.9572268652635
20.9723194042095 27.728865673682506 12.348226865263499
8.990319404209497 31.428773134736502 11.750680595790499
31.7587731347365 20.672226865263504 24.0177731347365
31.4427731347365 31.9673194042095 1.3487731347365006
15.860773134736501 3.377226865263502 30.494226865263506
11.879680595790504 8.342226865263498 6.248680595790503
1.6587731347365011 27.687773134736503 29.7577731347365
20.371226865263502 5.983226865263497 10.4057731347365
22.6187731347365 18.174319404209502 9.7832268652635
27.8357731347365 13.5972268652635 3.424226865263499
11.559226865263504 24.750773134736498 22.410226865263503
21.746226865263502 30.7813194042095 14.236226865263497
17.961226865263505 14.2987731347365 9.816680595790501
18.652226865263493 14.778226865263498 24.833226865263505
3.2742268652635005 21.123226865263497 4.107226865263499
25.459226865263496 19.6297731347365 6.793773134736501
5.782226865263503 17.897226865263498 31.8123194042095
12.327226865263505 15.7682268652635 8.0687731347365
9.081226865263496 2.5866805957904973 7.809773134736501
9.174773134736501 11.8752268652635 6.957680595790492
11.5477731347365 20.1703194042095 1.267773134736501
6.8527731347365 12.3907731347365 7.7527731347365005
14.303680595790496 16.1617731347365 4.197773134736501
27.2187731347365 16.654226865263503 1.3492268652634962
9.752226865263502 0.20768059579049236 5.475680595790493
16.2222268652635 27.2913194042095 29.0697731347365
31.9573194042095 19.5087731347365 25.0697731347365
5.891226865263498 30.8112268652635 8.493226865263502
28.7927731347365 32.1407731347365 1.7716805957904995
3.9482268652635 25.980773134736502 30.1983194042095
1.8997731347365008 26.867773134736503 12.3077731347365
18.284680595790505 1.3196805957905013 0.4272268652634992
15.5847731347365 20.1827731347365 18.738226865263506
8.6627731347365 10.761226865263502 9.178226865263504
4.758226865263502 28.7957731347365 28.0327731347365
17.7997731347365 5.093680595790502 7.7912268652635035
19.264226865263502 0.5112268652635024 30.3843194042095
30.510226865263498 24.110226865263506 29.879226865263497
8.374226865263502 8.5007731347365 4.754773134736499
11.452226865263505 19.9627731347365 24.2847731347365
31.965226865263496 25.01468059579051 26.741773134736498
13.7382268652635 12.4332268652635 24.7637731347365
16.7493194042095 26.6597731347365 5.104226865263499
4.017319404209498 28.9443194042095 10.9717731347365
12.4272268652635 0.5487731347364999 8.677773134736501
29.7053194042095 24.462319404209502 27.564773134736498
17.438226865263495 2.603226865263501 6.974226865263496
19.4217731347365 27.1927731347365 30.0273194042095
16.920226865263494 2.587680595790502 31.8947731347365
1.4647731347365003 1.7046805957904922 0.2937731347365009
9.249226865263502 10.7072268652635 5.975680595790493
9.6127731347365 26.866773134736498 10.204134326317515
31.2693194042095 32.0158656736825 27.056773134736503
30.1953194042095 24.9953194042095 7.421773134736501
10.449226865263505 8.413680595790495 31.5787731347365
7.856226865263501 30.4527731347365 9.9602268652635
6.395226865263503 22.9527731347365 0.9107731347365
17.4847731347365 14.9167731347365 24.7782268652635
2.077226865263505 18.9387731347365 26.0673194042095
10.8123194042095 17.3287731347365 15.786226865263501
15.0677731347365 19.616319404209502 14.0887731347365
13.731226865263501 21.6567731347365 16.769680595790504
9.840226865263496 13.3007731347365 10.069226865263495
29.9847731347365 8.778680595790505 31.8867731347365
6.434773134736501 12.3142268652635 2.674773134736501
12.9022268652635 31.5907731347365 22.857319404209502
12.8107731347365 5.2597731347365 18.1712268652635
20.8247731347365 29.3897731347365 17.5867731347365
5.325226865263495 32.0827731347365 13.3497731347365
28.2603194042095 1.5587731347364997 3.7956805957905004
27.2773194042095 4.5707731347365 22.661226865263494
28.7547731347365 21.1547731347365 8.8262268652635
17.754226865263497 26.119319404209502 26.9873194042095
1.2266805957904978 29.063226865263495 0.33968059579049736
14.679319404209497 21.308319404209502 27.235226865263506
14.904319404209499 17.5497731347365 12.994319404209502
30.0443194042095 24.6407731347365 24.2913194042095
9.636680595790494 16.2667731347365 5.274773134736501
8.300680595790496 3.397226865263498 7.371226865263502
6.053680595790496 28.4667731347365 10.811680595790506
6.2407731347365 8.2147731347365 6.582680595790492
6.7652268652635 23.4427731347365 29.2273194042095
14.9517731347365 30.430319404209502 29.0427731347365
7.4373194042095 8.388226865263498 1.1846805957904962
0.04468059579049566 21.0517731347365 24.1547731347365
15.859226865263501 16.224226865263496 7.6897731347365
21.105773134736502 31.4092268652635 19.355226865263496
5.9026805957905 22.939319404209503 28.748226865263497
3.3956805957904947 26.4153194042095 28.4187731347365
9.002226865263502 25.916773134736502 21.2087731347365
17.0426805957905 15.9177731347365 6.479226865263499
19.309226865263504 25.0503194042095 5.3003194042095
19.0697731347365 2.6411343263175127 7.401226865263503
19.483226865263497 24.673226865263494 4.3977731347365
14.048226865263501 22.9457731347365 16.7607731347365
11.948680595790506 27.933773134736498 21.166226865263503
8.424226865263499 0.2026805957904969 4.825226865263495
22.925773134736502 18.3537731347365 4.1937731347364995
13.278680595790505 9.755226865263502 2.364226865263497
8.209226865263496 23.7967731347365 0.33122686526349554
12.6772268652635 19.2782268652635 0.6482268652635028
30.250226865263507 23.4237731347365 30.510226865263498
