6.761226865263502 9.9157731347365 12.076319404209503
18.3767731347365 12.613773134736501 29.3487731347365
8.705226865263505 2.540773134736501 18.0317731347365
32.0427731347365 23.887226865263493 22.5443194042095
20.1237731347365 9.7027731347365 8.414226865263501
25.2437731347365 4.091226865263501 20.1263194042095
21.7603194042095 3.3187731347364995 30.8202268652635
7.335319404209503 21.3973194042095 26.5573194042095
27.638226865263498 12.906226865263498 24.7403194042095
24.7357731347365 8.986226865263497 21.2707731347365
20.471226865263496 12.4107731347365 20.7303194042095
10.8297731347365 5.083226865263498 26.617226865263497
20.6067731347365 25.7257731347365 29.9657731347365
5.446226865263505 12.627226865263502 13.392226865263503
25.163226865263503 23.218319404209502 15.548226865263501
29.5953194042095 7.5882268652635005 1.5982268652634986
30.0503194042095 0.8522268652634963 0.26222686526350003
6.799226865263499 1.8096805957904962 20.1047731347365
30.292226865263494 3.505680595790494 9.685319404209498
6.0847731347364995 18.89568059579051 7.876226865263497
13.2717731347365 16.7757731347365 20.518226865263493
13.6693194042095 28.5337731347365 4.6312268652635
13.215226865263496 30.253319404209503 26.312773134736503
31.684773134736503 13.2147731347365 23.604226865263506
9.090226865263496 18.0837731347365 26.1832268652635
13.403226865263498 1.2312268652635012 12.3967731347365
3.9006805957905044 5.051226865263494 4.615226865263502
26.061865673682505 2.6252268652634996 26.4437731347365
14.252226865263502 24.6067731347365 19.7197731347365
10.7772268652635 13.725226865263501 19.943226865263505
17.929226865263495 11.626226865263497 21.4513194042095
25.898226865263503 6.300226865263504 28.762226865263493
4.476773134736501 10.9326805957905 4.992773134736501
6.023226865263503 31.305319404209502 28.5342268652635
11.526680595790495 4.921226865263499 27.0683194042095
0.8147731347364999 28.8077731347365 17.4307731347365
24.8472268652635 7.0182268652635 23.3547731347365
17.495680595790503 27.572226865263495 12.7557731347365
12.926226865263494 4.351680595790498 26.1937731347365
12.282680595790495 29.863773134736498 31.474773134736502
26.4163194042095 9.8847731347365 20.889226865263502
7.888226865263498 3.839226865263498 19.2577731347365
2.624226865263502 21.6217731347365 17.6727731347365
26.9217731347365 23.535226865263503 2.309226865263504
25.562773134736503 5.9632268652635005 29.5193194042095
22.5612268652635 8.0822268652635 13.5387731347365
24.7523194042095 25.1557731347365 19.3673194042095
11.979680595790498 21.498680595790503 7.139319404209498
2.3186805957904966 18.669226865263504 15.155773134736501
15.8647731347365 2.9912268652634992 6.7317731347365
16.4927731347365 11.147680595790504 7.068680595790497
1.232680595790498 16.7647731347365 27.154226865263503
17.374226865263502 2.9266805957905007 13.7177731347365
5.745773134736501 22.196226865263505 27.1747731347365
13.010226865263498 20.1067731347365 31.120773134736503
19.38668059579051 18.077226865263505 13.609226865263501
8.6267731347365 13.1147731347365 11.523680595790495
23.2617731347365 14.337680595790502 13.0127731347365
12.1947731347365 20.228680595790507 5.212226865263496
18.3017731347365 9.7777731347365 8.6772268652635
18.632226865263497 3.8762268652634972 30.2653194042095
22.623226865263497 23.503226865263507 28.300773134736502
18.268226865263493 29.3993194042095 26.504226865263497
15.302319404209502 3.032226865263503 7.453226865263495
2.235226865263499 20.6922268652635 21.277226865263493
2.8197731347365007 23.718319404209502 28.5193194042095
29.905226865263494 25.8322268652635 8.7897731347365
3.4762268652634987 7.457773134736501 6.9482268652635
9.6097731347365 13.486226865263497 0.2796805957904951
4.243226865263502 24.6067731347365 28.378773134736498
5.0122268652635 25.681226865263504 6.0672268652635
29.614773134736502 3.921226865263499 10.2407731347365
8.465773134736502 2.9627731347364996 31.2687731347365
0.5042268652634974 3.9597731347364995 10.333226865263498
0.6657731347365008 28.4857731347365 15.703226865263495
10.728226865263501 4.6662268652635035 28.675773134736502
5.306680595790496 22.253773134736498 31.0217731347365
15.975226865263501 19.6707731347365 20.9657731347365
1.6087731347365004 5.817680595790506 13.6462268652635
20.52068059579051 22.7707731347365 28.251773134736503
23.9313194042095 0.9602268652635004 26.6627731347365
20.209680595790502 23.637226865263493 29.473226865263506
9.984226865263501 1.2172268652634983 4.926319404209497
17.1183194042095 13.793773134736501 1.8442268652635008
16.754226865263497 9.0347731347365 5.955226865263505
17.862134326317516 2.3217731347364996 28.246226865263502
13.1297731347365 24.4537731347365 21.5797731347365
9.9407731347365 31.776319404209502 12.2507731347365
25.3957731347365 7.386773134736501 20.0697731347365
14.836680595790497 22.0483194042095 3.4011343263175036
2.309773134736501 5.915226865263499 6.630226865263502
27.590680595790502 10.6963194042095 30.2656805957905
18.9147731347365 9.667226865263501 7.5456805957905
16.6757731347365 27.105773134736502 5.523226865263503
28.0937731347365 31.1927731347365 19.180680595790506
18.4873194042095 21.7827731347365 1.3716805957904938
8.370226865263497 10.845680595790498 12.1707731347365
26.0432268652635 12.2197731347365 30.3327731347365
2.0047731347364994 7.903226865263498 3.2712268652635004
32.14622686526349 29.394226865263498 16.5537731347365
11.081226865263496 3.438226865263495 29.4087731347365
9.8232268652635 25.8857731347365 14.996226865263502
18.113319404209502 8.398226865263503 5.779134326317504
18.2954119431555 11.482226865263499 29.8967731347365
11.6037731347365 30.936319404209502 31.8777731347365
7.627226865263502 14.970226865263498 26.5247731347365
6.7062268652634955 0.9782268652635011 26.459319404209502
6.668226865263499 25.259226865263493 27.5353194042095
11.991773134736501 23.4937731347365 26.8382268652635
9.918226865263499 19.884226865263493 18.6197731347365
17.6913194042095 11.1627731347365 5.1342268652635
13.688319404209498 23.7147731347365 7.043319404209502
7.4562268652634955 11.7472268652635 10.907226865263503
30.8197731347365 2.9897731347365006 17.2427731347365
26.4976805957905 15.6627731347365 13.1222268652635
13.352680595790503 14.9133194042095 20.4187731347365
11.091680595790493 13.565226865263504 18.8472268652635
17.213680595790507 18.8087731347365 20.4597731347365
12.7132268652635 30.922773134736502 30.8267731347365
24.8847731347365 9.6737731347365 20.1122268652635
5.269226865263498 21.9302268652635 4.722773134736499
2.586226865263498 1.950773134736501 18.8567731347365
24.858773134736502 5.674226865263499 21.2627731347365
28.5757731347365 1.6707731347364998 26.9457731347365
10.2367731347365 4.9392268652635 31.1983194042095
8.983680595790503 10.9577731347365 24.5492268652635
15.236226865263497 30.389319404209502 27.7567731347365
6.120226865263497 14.285226865263503 12.8597731347365
0.23422686526350134 15.067134326317515 3.8033194042094998
0.8052268652634993 29.786226865263494 1.3487731347365006
21.8317731347365 19.6883194042095 4.8187731347364995
3.7312268652635012 23.235319404209502 29.6443194042095
28.928773134736502 21.5697731347365 20.9357731347365
19.5427731347365 16.465226865263496 11.560226865263495
23.148319404209502 10.1342268652635 31.4517731347365
10.055773134736501 28.250773134736498 3.5072268652634975
20.5237731347365 22.9602268652635 12.9463194042095
4.8437731347365 24.6107731347365 3.9383194042094978
23.314773134736498 15.7307731347365 13.627319404209498
9.2497731347365 23.4177731347365 12.4127731347365
10.0032268652635 4.022226865263498 29.616773134736498
23.9313194042095 2.9202268652635013 27.2053194042095
31.714226865263505 15.1827731347365 5.212226865263496
7.680226865263499 21.9613194042095 27.0837731347365
11.746226865263502 11.569319404209498 0.10768059579049805
29.5282268652635 14.667226865263501 18.004865673682502
14.344680595790493 19.8467731347365 31.033226865263494
28.852226865263496 16.25868059579051 17.6197731347365
9.2626805957905 5.3267731347365 18.2527731347365
26.4033194042095 19.557226865263495 1.0982268652634986
25.5973194042095 5.0152268652635 27.8623194042095
22.163226865263503 25.605773134736502 28.8477731347365
24.4557731347365 9.4767731347365 13.6467731347365
4.8812268652635 24.9007731347365 6.238226865263499
4.6976805957905015 10.916226865263503 24.2437731347365
27.8297731347365 25.149226865263493 8.3157731347365
4.2597731347365 30.5513194042095 0.6862268652634995
5.191226865263495 5.215226865263496 19.562865673682495
21.6122268652635 13.966680595790493 30.0483194042095
13.5377731347365 3.4887731347364994 21.0672268652635
10.8497731347365 2.141680595790504 14.654226865263503
22.7347731347365 18.8333194042095 20.0427731347365
29.9667731347365 3.3116805957905058 9.061773134736502
15.838680595790507 10.990319404209497 24.916773134736502
9.695680595790506 22.0937731347365 6.690773134736501
23.6807731347365 29.1417731347365 0.7987731347364999
7.425226865263504 0.3867731347365009 19.7836805957905
31.8477731347365 10.8883194042095 21.953319404209502
10.843226865263496 21.505226865263502 4.6567731347365005
13.2017731347365 23.4637731347365 21.4277731347365
16.550226865263504 16.724773134736502 25.1127731347365
10.7472268652635 3.4092268652634985 27.760226865263498
23.401319404209502 20.5533194042095 17.6257731347365
27.7782268652635 13.334680595790502 20.3447731347365
1.7332268652634966 28.5207731347365 18.131226865263493
14.639226865263502 21.5822268652635 23.6982268652635
30.238773134736498 19.227226865263496 10.211680595790497
9.2377731347365 14.493680595790494 24.9477731347365
4.523226865263503 14.3877731347365 21.652226865263493
8.7217731347365 31.247865673682497 29.0282268652635
5.183680595790506 26.311773134736498 5.0212268652635
2.2956805957905004 22.513226865263498 19.959226865263496
7.278319404209501 3.215226865263496 16.9147731347365
9.3737731347365 10.148226865263503 13.825226865263495
20.1337731347365 15.2237731347365 15.747680595790499
26.5633194042095 12.8427731347365 19.0077731347365
17.8047731347365 8.5447731347365 16.488226865263506
27.2697731347365 15.3557731347365 20.041773134736502
28.2167731347365 5.2637731347365 17.349226865263496
19.3232268652635 0.05422686526349452 12.587226865263496
21.956680595790502 7.6157731347365 24.0817731347365
29.5947731347365 24.2007731347365 10.240680595790494
26.6062268652635 23.8082268652635 2.2497731347365004
14.1167731347365 7.985226865263499 24.982226865263506
29.9123194042095 11.094680595790493 23.3377731347365
4.907226865263503 8.0912268652635 2.1517731347364997
19.232226865263506 12.7532268652635 20.622226865263507
4.3147731347365 9.126226865263497 3.3137731347365005
11.108226865263497 22.368680595790508 7.488226865263499
26.5972268652635 29.1437731347365 21.0487731347365
5.521319404209503 31.107319404209502 27.541773134736502
29.608773134736502 2.782226865263503 18.3263194042095
16.741226865263506 19.702226865263505 27.303865673682495
25.5927731347365 14.0607731347365 19.742226865263497
6.6052268652634964 9.973680595790498 22.5612268652635
6.9067731347365005 13.868226865263502 10.4797731347365
16.7797731347365 4.2916805957904955 30.0462268652635
14.495226865263497 21.822226865263495 2.4627731347364996
24.4003194042095 20.9477731347365 22.1263194042095
5.618226865263502 7.030773134736501 2.525226865263498
0.6087731347365004 17.5057731347365 24.6182268652635
3.833226865263498 14.007226865263497 31.562773134736503
22.8397731347365 23.672773134736502 11.3227731347365
13.8807731347365 5.5587731347365 29.318226865263505
12.5657731347365 4.023680595790495 27.748226865263497
7.543226865263499 5.4476805957905015 19.364680595790503
18.6997731347365 12.165226865263499 5.3112268652634995
6.3033194042095 11.3872268652635 1.5006805957904987
29.4417731347365 13.483226865263497 23.928226865263504
10.9512268652635 10.828226865263495 13.312134326317505
23.0707731347365 16.3687731347365 13.7317731347365
13.1347731347365 16.041773134736502 12.3553194042095
3.5707731347365 25.1827731347365 6.532226865263503
30.3137731347365 6.360226865263499 9.257226865263497
28.3383194042095 7.873773134736501 0.6152268652635016
21.267226865263503 22.9207731347365 26.933773134736498
7.3226805957905015 31.936773134736498 28.592680595790497
2.5573194042094975 29.584319404209502 30.3943194042095
9.356226865263501 25.8327731347365 12.0487731347365
17.513680595790504 15.5977731347365 10.8657731347365
4.833680595790497 3.850680595790493 19.544226865263504
26.7087731347365 12.8527731347365 31.078319404209502
3.955226865263505 15.836226865263498 22.8047731347365
1.7866805957905 28.866773134736498 2.6876805957904963
5.649319404209503 23.822226865263495 28.1337731347365
28.1647731347365 13.580226865263505 25.0612268652635
13.413226865263503 16.288226865263503 27.5113194042095
26.5137731347365 8.717226865263498 18.035773134736502
6.426226865263494 0.33522686526350043 25.785226865263503
19.312134326317505 13.904680595790495 29.225680595790507
17.4752268652635 16.7663194042095 25.5853194042095
7.2926805957905 24.142226865263503 29.113773134736498
17.410226865263503 12.9777731347365 12.984226865263501
32.1477731347365 7.330680595790497 11.9127731347365
6.0032268652635 25.7597731347365 28.1717731347365
29.628226865263507 4.7376805957904935 16.7617731347365
7.111226865263497 2.9137731347365 12.144226865263498
24.6347731347365 10.043773134736501 0.7042268652635002
3.891226865263498 22.667226865263494 29.8977731347365
2.3262268652635 14.9157731347365 30.1337731347365
20.3657731347365 15.864226865263497 12.0803194042095
2.789226865263501 9.394226865263498 4.714680595790497
26.2293194042095 12.880226865263502 20.5848656736825
11.4628656736825 3.709680595790502 27.946865673682495
14.3842268652635 1.2787731347365003 14.5137731347365
3.5302268652635007 18.534680595790505 15.612226865263501
9.278680595790505 11.0967731347365 16.681226865263504
21.239773134736502 11.619680595790499 5.856226865263501
24.503226865263507 8.414226865263501 20.0773194042095
20.5607731347365 2.5122268652635 10.034226865263498
12.804226865263495 18.9782268652635 6.690226865263504
26.304226865263495 26.8717731347365 21.4093194042095
25.514226865263502 5.863773134736499 12.048226865263501
3.8116805957905058 6.6997731347365 26.962226865263496
22.1523194042095 10.613773134736501 0.47877313473649963
24.4157731347365 5.2467731347365 15.708680595790497
18.1277731347365 20.950226865263495 1.6332268652635022
3.0032268652634997 13.788680595790495 30.149226865263493
6.0342268652634985 12.023773134736501 21.0552268652635
10.2507731347365 29.1857731347365 0.22022686526349844
10.272680595790504 25.336226865263505 30.620226865263497
4.0527731347364995 6.7592268652635 7.9517731347365
0.7276805957905026 29.3887731347365 17.0942268652635
9.531226865263498 1.4907731347365 26.2902268652635
15.285319404209499 3.5122268652635 27.346319404209503
24.381865673682498 2.8936805957904994 15.947680595790501
26.0127731347365 29.6987731347365 19.624226865263502
20.249226865263502 4.828773134736501 0.904226865263503
15.551319404209497 17.212226865263496 11.5537731347365
6.432226865263495 21.783226865263494 28.9637731347365
16.0372268652635 3.3352268652635004 20.0657731347365
19.0732268652635 17.9517731347365 14.354226865263499
12.2617731347365 29.980226865263496 4.385226865263498
11.214226865263498 23.0057731347365 6.423226865263501
22.2812268652635 19.446226865263505 6.444226865263495
31.7333194042095 0.6752268652635038 2.2712268652635004
8.7907731347365 24.8627731347365 13.681134326317505
15.5642268652635 4.473680595790498 6.3722268652634995
9.1117731347365 15.7317731347365 25.4602268652635
16.1237731347365 26.565773134736503 13.941680595790501
16.138226865263498 1.2552268652635021 16.0547731347365
25.0792268652635 4.498226865263497 21.5697731347365
26.110226865263506 5.361226865263497 12.976226865263499
15.376226865263497 23.891226865263498 7.6327731347364995
23.6977731347365 8.279680595790495 12.6967731347365
5.753134326317507 3.748773134736501 21.2773194042095
28.683319404209502 23.8943194042095 20.9033194042095
8.757680595790504 16.2767731347365 25.3993194042095
30.0533194042095 4.794226865263504 10.1796805957905
19.202226865263505 28.768226865263493 17.834226865263496
9.982319404209502 11.970226865263498 12.4493194042095
24.5573194042095 30.0663194042095 4.030773134736501
13.6432268652635 2.4597731347364995 3.315773134736501
8.7472268652635 1.8796805957905036 19.7957731347365
17.598226865263506 3.486680595790503 27.7937731347365
3.4406805957904965 2.459680595790502 17.928680595790496
14.593226865263496 12.5417731347365 18.6952268652635
28.9153194042095 5.763226865263498 2.9972268652634995
4.543226865263499 0.35222686526349634 22.4027731347365
5.7302268652634964 11.421680595790505 14.102226865263496
24.065226865263504 4.9972268652634995 15.342680595790497
27.501773134736503 14.2442268652635 5.333226865263498
21.267226865263503 10.0912268652635 8.227680595790503
10.1947731347365 4.2667731347365 30.724680595790502
6.059226865263504 11.3187731347365 12.174226865263499
11.666226865263503 24.934773134736503 27.322226865263495
5.5907731347365 1.7682268652635003 10.284226865263498
1.0912268652635007 16.1267731347365 30.989773134736502
3.6757731347365006 13.730226865263496 29.314773134736498
30.336226865263505 19.1883194042095 0.7696805957905042
22.241226865263506 5.7532268652635 21.553773134736502
22.849773134736502 3.0472268652635037 29.7943194042095
14.7917731347365 25.9667731347365 30.5747731347365
20.408226865263494 30.4697731347365 0.4956805957905033
25.533226865263494 10.7187731347365 29.871226865263502
6.427226865263499 13.0697731347365 21.8547731347365
1.6057731347365003 5.831680595790502 4.468226865263496
2.2577731347364995 23.1712268652635 17.8797731347365
30.8077731347365 12.94413432631751 19.1873194042095
25.2872268652635 14.0537731347365 6.102226865263496
13.589226865263498 15.4236805957905 12.8517731347365
10.508680595790494 24.51168059579051 10.827680595790497
16.147226865263498 9.9417731347365 6.329134326317515
1.1136805957904983 17.8227731347365 26.3487731347365
30.122226865263507 16.2967731347365 20.0747731347365
9.6342268652635 18.0702268652635 18.334226865263496
0.6517731347364997 6.790773134736501 27.282319404209503
3.5872268652634958 14.5047731347365 32.0577731347365
19.5793194042095 18.958680595790497 8.159226865263498
13.8707731347365 22.3427731347365 4.0487731347365
6.132680595790504 9.650680595790504 4.313226865263495
16.0867731347365 26.1457731347365 31.741773134736498
31.0497731347365 22.6247731347365 2.751773134736501
20.7167731347365 10.617680595790503 8.5672268652635
31.1977731347365 24.319226865263495 23.871865673682507
7.090226865263496 27.4632268652635 10.571226865263505
8.948680595790506 31.4037731347365 26.5882268652635
8.166134326317504 18.2983194042095 25.150226865263498
8.6887731347365 11.598226865263499 14.889773134736501
7.446226865263505 26.604226865263506 9.115226865263502
17.9667731347365 29.1077731347365 6.2507731347365
28.995773134736503 7.8907731347365 1.3187731347364995
8.626226865263497 5.269226865263498 30.0987731347365
21.1592268652635 31.534680595790505 10.912319404209502
23.3607731347365 29.456226865263496 3.6147731347365006
27.5107731347365 7.1052268652634964 2.7307731347365003
4.373226865263497 24.514226865263502 27.5207731347365
8.455134326317506 3.175226865263504 17.144226865263498
19.545226865263494 9.157680595790495 6.011680595790494
28.7313194042095 6.4432268652635045 1.7336805957905028
23.4827731347365 15.4197731347365 13.514680595790495
30.9748656736825 4.0702268652635 11.910226865263503
29.3487731347365 17.824226865263505 9.5197731347365
19.678226865263504 23.249680595790508 13.650680595790504
12.424680595790505 10.294226865263504 25.964226865263505
20.0883194042095 21.4977731347365 1.1302268652635021
12.588680595790493 20.602773134736502 4.629226865263497
25.1717731347365 26.503865673682498 23.364226865263497
21.1153194042095 3.894680595790504 0.5637731347365005
14.1892268652635 9.4707731347365 31.177773134736498
16.197226865263495 10.974226865263496 23.5287731347365
12.7137731347365 24.982319404209502 13.7776805957905
1.4662268652635007 29.8322268652635 17.0793194042095
13.434226865263504 21.593319404209502 21.902226865263493
31.180773134736498 29.5107731347365 17.099226865263496
13.5942268652635 29.522226865263498 27.182226865263495
31.0377731347365 2.735773134736501 12.386226865263502
19.01468059579051 21.967226865263505 0.7071343263175152
4.0967731347365 12.4022268652635 12.4542268652635
23.7937731347365 24.854226865263506 21.051226865263494
29.6832268652635 4.267226865263503 19.0757731347365
19.169226865263504 14.222680595790493 13.8382268652635
25.0313194042095 6.1952268652635 13.627680595790494
30.8777731347365 3.8947731347365 17.600680595790507
3.739680595790503 6.558226865263499 26.4097731347365
30.1467731347365 2.9022268652635006 19.4327731347365
0.16977313473650035 5.272226865263498 10.7627731347365
7.863680595790498 3.036226865263501 20.1437731347365
0.3747731347365004 6.979680595790498 29.3996805957905
16.008319404209498 19.0807731347365 12.160226865263503
23.6843194042095 0.790680595790505 26.846226865263496
10.115319404209497 2.8937731347365006 28.863773134736498
24.9302268652635 7.838773134736501 19.9602268652635
4.735134326317507 10.1737731347365 13.4022268652635
27.230226865263496 11.110680595790498 31.9842268652635
23.9242268652635 21.508226865263502 23.4977731347365
26.9493194042095 27.8243194042095 24.758226865263502
21.4957731347365 1.7456805957905033 8.279226865263503
8.456773134736501 31.3553194042095 25.919773134736502
24.5857731347365 9.215773134736502 20.855226865263496
27.622773134736498 1.2802268652635007 28.1533194042095
2.216773134736501 29.0857731347365 31.6107731347365
2.364226865263497 29.2297731347365 2.4337731347364997
9.9077731347365 23.938226865263495 12.731226865263501
15.6067731347365 3.0446805957904957 3.2667731347365
6.647226865263498 18.886226865263502 8.4176805957905
17.182226865263495 30.113773134736498 26.845226865263506
2.3907731347365004 29.122773134736498 1.0067731347365
21.6367731347365 21.8052268652635 6.802226865263499
30.3297731347365 20.0817731347365 0.23422686526350134
11.362226865263501 15.5657731347365 21.5757731347365
30.593319404209502 10.959226865263496 23.251226865263497
1.8792268652634974 9.439319404209503 7.0807731347365
25.927773134736498 27.786226865263494 15.269226865263498
13.444226865263495 4.444773134736501 26.873226865263497
14.049226865263499 16.155226865263494 27.358226865263497
16.4387731347365 2.2402268652635016 15.7887731347365
6.868680595790494 22.044773134736502 30.181773134736503
3.7272268652634963 21.0607731347365 17.798226865263494
24.176226865263494 8.685226865263495 19.119226865263506
14.8052268652635 5.5197731347365 20.754226865263497
27.2327731347365 9.244773134736501 19.3187731347365
26.5817731347365 3.6422268652635026 26.2047731347365
25.431226865263504 15.8237731347365 26.8197731347365
30.2223194042095 16.2647731347365 19.5047731347365
24.1857731347365 5.305226865263499 30.275226865263498
6.842226865263498 18.124226865263502 25.939319404209503
15.876226865263497 26.3487731347365 15.6577731347365
6.289226865263501 11.621134326317502 15.3867731347365
21.520226865263503 16.7327731347365 12.9572268652635
9.3437731347365 2.5472268652635037 11.565226865263504
18.2437731347365 9.046773134736501 6.419226865263504
22.231680595790507 31.6772268652635 8.242773134736499
12.2077731347365 1.1991343263175054 12.865680595790494
22.2623194042095 2.5122268652635 29.000773134736498
20.9206805957905 23.589226865263505 28.87768059579051
0.02822686526349827 17.072226865263495 14.218226865263496
20.4457731347365 26.139319404209502 31.192865673682505
11.8662268652635 3.2882268652635034 31.2932268652635
31.197226865263495 7.664319404209504 28.247773134736498
28.0077731347365 16.407226865263503 9.074226865263505
21.9027731347365 27.4443194042095 30.4447731347365
18.4692268652635 18.0467731347365 14.120226865263497
14.105680595790503 3.050226865263504 30.4023194042095
7.584226865263496 5.716773134736501 31.8163194042095
6.596226865263496 11.025226865263498 21.617226865263497
30.7967731347365 22.2697731347365 3.0416805957904955
22.804226865263495 3.3117731347365 29.0372268652635
30.5757731347365 22.529226865263503 29.0163194042095
11.979680595790498 22.248226865263497 5.409680595790505
4.4197731347365 30.1577731347365 0.3842268652634999
28.858773134736502 14.4607731347365 22.044773134736502
24.6952268652635 6.6407731347365 13.269134326317513
26.068226865263505 3.167134326317509 28.8333194042095
30.744319404209502 7.038226865263503 10.166226865263503
30.0552268652635 11.809226865263504 20.8767731347365
15.3787731347365 21.779226865263503 3.0237731347364996
13.752319404209498 4.5822268652635 14.1957731347365
18.455134326317506 14.7787731347365 13.203773134736501
13.6967731347365 4.971226865263496 12.232773134736501
23.3637731347365 6.011773134736501 23.1037731347365
28.8567731347365 12.614680595790503 21.8457731347365
20.563226865263495 1.0156805957904993 8.357773134736501
10.7012268652635 17.312226865263504 19.9872268652635
28.6127731347365 7.145773134736499 2.918680595790505
7.170226865263501 25.639226865263502 29.5947731347365
20.7903194042095 22.364226865263497 15.028226865263498
8.166226865263503 26.446226865263505 31.0253194042095
7.5062268652635 14.9447731347365 11.6977731347365
11.035226865263503 3.7882268652635034 13.0216805957905
20.3847731347365 15.724226865263496 14.349226865263496
8.5927731347365 1.5106805957905038 12.781680595790505
18.4362268652635 10.2057731347365 21.8427731347365
6.2207731347365005 9.0193194042095 1.7956805957905004
16.0942268652635 13.498680595790503 12.697319404209498
7.5197731347365 14.508226865263502 14.090226865263496
7.935226865263495 24.644134326317513 26.059680595790496
22.660773134736502 9.7686805957905 0.9166805957904955
3.6362268652635024 9.535226865263503 5.1052268652634964
4.390680595790499 23.263226865263498 29.3747731347365
20.786226865263494 24.4332268652635 11.922226865263504
6.575773134736501 3.0347731347365006 21.1657731347365
14.3872268652635 24.9427731347365 22.2312268652635
30.863773134736498 24.5267731347365 22.7487731347365
29.0807731347365 13.3047731347365 21.673226865263494
19.2253194042095 8.136226865263502 7.168773134736501
11.417226865263501 21.292226865263494 8.514226865263502
25.3207731347365 4.9557731347365 27.0257731347365
9.307319404209498 25.741773134736498 31.9163194042095
29.002226865263502 31.6037731347365 25.649226865263493
24.930319404209502 1.4247731347365011 27.7203194042095
4.694226865263495 22.487680595790508 19.6862268652635
16.138226865263498 27.857226865263506 12.5387731347365
9.924680595790505 24.771226865263493 29.807226865263495
6.213773134736501 22.4427731347365 29.1293194042095
11.876226865263497 15.8872268652635 5.9337731347365
18.6706805957905 29.809773134736503 25.7407731347365
7.897226865263498 24.410773134736502 30.3017731347365
20.035773134736502 13.8907731347365 15.276226865263503
9.6537731347365 23.0807731347365 27.2987731347365
2.341773134736501 29.266226865263498 16.5006805957905
3.6802268652634993 1.6027731347365002 19.552319404209502
11.2562268652635 23.2137731347365 27.0157731347365
22.2597731347365 24.125773134736498 12.732773134736501
9.651226865263503 24.0567731347365 12.4317731347365
17.1097731347365 14.8617731347365 11.6162268652635
27.606680595790507 18.1952268652635 1.357226865263499
15.575226865263495 18.0777731347365 27.7897731347365
8.4302268652635 0.31322686526349486 12.136226865263502
21.1887731347365 22.6597731347365 12.1207731347365
13.990680595790494 24.318226865263505 20.3237731347365
6.336226865263498 22.4647731347365 30.4763194042095
7.096226865263496 12.3082268652635 13.097680595790493
32.1682268652635 6.285226865263503 26.8977731347365
0.958226865263498 17.7457731347365 14.5117731347365
13.371680595790494 17.5667731347365 26.5327731347365
1.4037731347365003 30.3977731347365 2.328773134736501
23.9553194042095 25.982319404209502 21.6357731347365
15.009319404209503 15.4457731347365 14.718226865263496
13.988680595790498 18.5747731347365 13.135680595790504
12.531226865263498 20.9177731347365 21.767226865263503
26.5312268652635 17.391226865263498 18.3537731347365
4.716319404209504 0.30722686526349463 1.350680595790493
19.205226865263505 14.0197731347365 15.0062268652635
5.949226865263505 23.641226865263498 27.053226865263504
19.5517731347365 7.3847731347365 8.1317731347365
10.218226865263496 16.1592268652635 20.0993194042095
0.060226865263494744 20.328226865263495 28.295226865263494
6.1432268652635 13.3722268652635 21.4452268652635
20.5607731347365 21.7287731347365 15.495226865263497
27.4357731347365 5.729226865263499 4.037226865263499
18.6817731347365 10.3367731347365 23.480226865263496
1.678226865263504 27.9323194042095 15.844773134736501
2.931226865263504 9.260680595790504 2.072226865263495
2.212680595790502 31.53586567368251 31.753773134736498
20.2927731347365 25.677773134736498 26.744226865263506
22.875319404209502 4.0412268652635035 15.3337731347365
15.703773134736501 27.682226865263495 1.7612268652635024
26.1763194042095 5.6122268652635015 30.637226865263493
26.8607731347365 16.053226865263504 17.4147731347365
15.569226865263495 14.6173194042095 12.2427731347365
8.7626805957905 26.260226865263498 30.2613194042095
23.1933194042095 8.4362268652635 11.968319404209499
26.9427731347365 14.5247731347365 5.491226865263499
15.644680595790504 25.708226865263505 15.135226865263498
23.942680595790506 25.6517731347365 19.611226865263497
19.2617731347365 27.7627731347365 15.9517731347365
12.9817731347365 0.5982268652634986 6.674226865263499
25.0207731347365 11.872773134736502 0.38622686526350236
1.8207731347365002 30.0762268652635 14.485773134736501
6.799226865263499 23.349773134736502 5.0417731347365
10.9967731347365 21.755226865263502 5.456773134736501
26.3562268652635 17.0423194042095 19.717865673682496
0.8442268652635008 4.2746805957905 9.4327731347365
26.1987731347365 16.6867731347365 26.4517731347365
14.414226865263501 2.3612268652634967 6.535226865263503
11.418226865263499 29.7693194042095 0.5746805957904968
17.212226865263496 6.447226865263495 15.946226865263505
22.7283194042095 26.7187731347365 19.9537731347365
28.5947731347365 13.2307731347365 24.0503194042095
10.8857731347365 4.6027731347365 27.4657731347365
11.7913194042095 3.610226865263499 13.6552268652635
25.256226865263493 3.1932268652635045 30.881226865263493
28.948680595790506 4.682226865263495 16.3517731347365
23.750226865263507 5.107226865263499 14.6497731347365
30.7847731347365 4.2682268652635 9.621226865263502
27.0563194042095 17.464226865263505 18.432226865263495
15.7477731347365 20.2847731347365 27.1517731347365
14.364226865263497 25.5757731347365 21.605680595790503
11.747773134736502 24.569226865263495 14.2297731347365
16.599773134736502 4.389773134736501 6.033226865263501
0.4936805957904937 17.8947731347365 28.392226865263503
1.9237731347365 4.6252268652635 28.7902268652635
6.1492268652635005 6.844773134736501 6.5527731347364995
26.8427731347365 5.424226865263499 15.3627731347365
1.4566805957905018 6.5777731347365 27.3877731347365
25.2812268652635 15.4597731347365 18.3297731347365
24.851226865263506 22.3537731347365 14.687773134736501
6.6372268652635 20.190226865263504 8.9328656736825
17.8027731347365 16.0487731347365 11.619773134736501
20.2847731347365 1.3116805957905058 10.3967731347365
19.810226865263495 20.370226865263497 8.3547731347365
31.8013194042095 18.599773134736502 27.607226865263506
13.888226865263498 17.842226865263505 12.962226865263496
9.8647731347365 9.9757731347365 14.0852268652635
4.2787731347365 5.207773134736501 5.809773134736501
31.111773134736502 19.3267731347365 24.4217731347365
8.301226865263494 26.1507731347365 31.7102268652635
4.9893194042095 24.392319404209502 30.427319404209502
7.623226865263497 24.072226865263495 30.6357731347365
31.361773134736502 24.5277731347365 21.3622268652635
17.6347731347365 19.295226865263494 20.273226865263503
13.209226865263496 18.3567731347365 27.9497731347365
31.7283194042095 27.9127731347365 18.596226865263496
21.276226865263503 30.673226865263494 30.595226865263506
17.8957731347365 8.8517731347365 23.3267731347365
5.780226865263501 20.3583194042095 31.522226865263498
10.618226865263502 23.314773134736498 13.407226865263503
15.9127731347365 15.5047731347365 13.346226865263496
24.529226865263503 27.241773134736498 24.0983194042095
5.350680595790493 2.9427731347365 19.741226865263506
9.372773134736502 23.5277731347365 11.350680595790493
32.0737731347365 1.7117731347365002 0.41822686526349884
7.9632268652635005 21.6707731347365 30.5247731347365
20.3797731347365 12.2277731347365 31.0912268652635
17.9607731347365 7.496226865263502 16.590226865263496
27.904319404209502 7.283226865263501 4.005226865263502
15.7127731347365 5.864773134736501 19.360319404209502
11.3902268652635 20.896226865263493 7.555226865263499
28.2357731347365 14.4767731347365 17.4842268652635
2.8197731347365007 4.5412268652635035 4.315226865263504
6.3112268652634995 14.1766805957905 9.9972268652635
32.0207731347365 20.4207731347365 27.2597731347365
13.5357731347365 2.1853194042094977 28.9782268652635
21.249226865263502 23.9717731347365 25.8442268652635
25.2287731347365 4.4457731347365 29.038226865263503
20.7647731347365 25.416226865263503 27.3627731347365
6.2087731347365 2.4427731347365 21.890226865263493
30.1843194042095 2.3656805957904936 25.781680595790505
8.258226865263502 5.327226865263505 18.8037731347365
28.5267731347365 7.5286805957905045 31.623773134736503
11.449226865263505 4.453226865263495 13.6067731347365
14.071226865263505 14.7117731347365 18.783226865263494
25.2188656736825 12.0407731347365 1.7842268652634985
7.2367731347365005 23.9553194042095 29.7067731347365
21.5617731347365 17.0312268652635 11.4632268652635
17.002226865263502 0.905773134736501 29.7433194042095
11.671226865263499 16.8657731347365 20.178226865263504
16.91068059579051 17.4893194042095 25.407319404209503
6.2337731347365 7.154226865263503 7.577226865263505
25.2902268652635 10.090319404209499 19.4953194042095
3.4277731347364995 7.970134326317506 3.4092268652634985
25.3713194042095 5.0242268652635005 30.559226865263504
22.553773134736502 4.165319404209502 21.4233194042095
1.7286805957904932 17.1327731347365 24.9663194042095
18.6497731347365 30.012226865263493 26.940773134736503
1.7386805957904983 6.531226865263498 26.9147731347365
22.5243194042095 22.019226865263498 7.725680595790493
13.2717731347365 3.7397731347365006 26.4778656736825
9.581680595790502 12.530319404209504 26.580226865263505
21.0207731347365 10.794226865263504 7.344773134736501
2.7427731347365008 15.5302268652635 31.549319404209502
15.9077731347365 14.465319404209499 28.390226865263493
4.747680595790499 21.3187731347365 18.6387731347365
25.0397731347365 19.940226865263504 21.050773134736502
9.1892268652635 1.7697731347365 12.328226865263495
12.959773134736501 18.0017731347365 10.9467731347365
6.675773134736501 3.783773134736501 18.172773134736502
2.8112268652634995 2.7362268652634967 21.2902268652635
18.8827731347365 17.6357731347365 12.130226865263502
22.027226865263493 30.950226865263495 10.4422268652635
1.5182268652635003 6.760226865263498 3.8877731347365003
24.7867731347365 9.938680595790501 1.6762268652634944
21.6827731347365 20.120226865263497 7.854226865263499
25.1887731347365 9.244773134736501 24.5913194042095
14.9677731347365 3.6022268652634963 20.628319404209503
13.5917731347365 14.591773134736501 29.398319404209502
28.613773134736498 16.1797731347365 19.5587731347365
13.8087731347365 22.7987731347365 6.6087731347365
3.7972268652635037 14.6307731347365 30.3996805957905
13.222680595790493 18.190226865263504 12.441226865263495
18.644226865263498 17.212226865263496 15.094773134736501
4.4632268652635005 13.6287731347365 31.5077731347365
20.6323194042095 8.022226865263498 6.806773134736501
21.0687731347365 13.8527731347365 10.9177731347365
6.564680595790506 11.499226865263502 22.506226865263493
0.32722686526350486 6.9602268652635 12.401680595790495
5.0127731347365 23.3082268652635 27.9723194042095
5.745680595790503 1.1776805957905054 9.650319404209501
13.6757731347365 12.960319404209503 20.063226865263495
15.9867731347365 17.983226865263497 27.238226865263506
9.1952268652635 4.731226865263501 12.651226865263503
5.493226865263502 22.9627731347365 25.7347731347365
24.894226865263498 31.6032268652635 4.898226865263503
25.5792268652635 10.136680595790494 31.889226865263502
14.980226865263496 31.1797731347365 24.5777731347365
10.8887731347365 12.1197731347365 29.9453194042095
5.985773134736501 7.761680595790494 5.429319404209497
22.067680595790506 14.611226865263497 14.9517731347365
24.8467731347365 6.236226865263497 14.258680595790494
7.501226865263497 14.517773134736501 11.5597731347365
10.767773134736501 22.9457731347365 15.429319404209497
20.689773134736498 30.3837731347365 30.6213194042095
6.669226865263504 24.2077731347365 26.931773134736503
12.4223194042095 13.395226865263503 17.695773134736502
21.800773134736502 31.555319404209502 11.1892268652635
30.3897731347365 17.2297731347365 20.9727731347365
13.7887731347365 1.9592268652634957 14.4146805957905
11.0547731347365 5.492773134736501 28.2677731347365
3.2117731347365 7.494226865263499 7.646773134736501
9.220319404209501 0.7632268652634977 11.607319404209502
26.186773134736498 4.072773134736501 20.044680595790496
9.3517731347365 22.2567731347365 29.733226865263497
8.0522268652635 11.144226865263498 25.870226865263497
16.7932268652635 13.6617731347365 15.4082268652635
8.142680595790495 24.738773134736498 13.153226865263498
16.378319404209503 18.9573194042095 26.044226865263504
0.06977313473650071 2.4817731347364997 0.3767731347365011
14.978226865263501 3.127680595790494 14.2637731347365
24.8352268652635 26.1417731347365 24.298226865263494
12.238319404209502 16.125226865263507 28.7603194042095
16.3267731347365 11.3613194042095 22.800773134736502
10.200226865263495 22.590319404209502 13.816226865263495
17.6853194042095 10.573134326317515 9.0097731347365
2.697226865263495 8.520773134736501 4.7532268652635
19.6772268652635 25.700319404209502 28.712226865263496
31.9267731347365 31.5377731347365 0.011773134736500879
18.277226865263493 15.4947731347365 15.333226865263498
10.255226865263502 23.3567731347365 13.3087731347365
29.4237731347365 31.3543194042095 26.2162268652635
13.575226865263495 2.2852268652635033 27.9613194042095
23.6327731347365 23.7927731347365 28.4687731347365
1.904226865263503 20.5547731347365 27.150226865263498
9.028226865263498 12.5642268652635 9.946226865263505
17.484680595790508 10.9193194042095 21.1647731347365
28.1077731347365 11.881680595790499 23.8467731347365
24.569226865263495 13.246226865263502 11.556773134736499
11.1922268652635 14.089319404209501 19.420226865263494
3.793226865263499 4.6857731347365 6.9147731347365
22.7727731347365 14.657226865263503 13.175226865263504
13.629680595790504 3.7582268652635022 12.3657731347365
14.3322268652635 23.7017731347365 5.508226865263502
13.4607731347365 2.550226865263504 13.991773134736501
19.039226865263494 29.197226865263495 16.052319404209502
27.190773134736503 25.6873194042095 7.4807731347365
15.949226865263505 17.795226865263494 25.4053194042095
28.5927731347365 15.081773134736501 23.220680595790498
29.9508656736825 31.794226865263504 1.961226865263498
19.224226865263496 29.7257731347365 0.08777313473650139
15.551226865263494 20.7833194042095 2.6147731347365006
6.549226865263499 24.056680595790496 14.453773134736501
3.3796805957905036 22.4542268652635 21.226226865263506
17.289226865263494 8.953773134736501 24.0167731347365
24.5187731347365 5.3793194042095 28.275865673682503
18.1067731347365 10.092226865263498 23.9247731347365
5.923226865263501 4.097773134736499 21.9452268652635
19.3292268652635 24.0377731347365 23.083226865263505
21.8307731347365 23.4178656736825 27.4086805957905
18.1357731347365 9.9967731347365 6.527773134736501
13.898226865263503 14.2197731347365 27.119773134736498
14.1937731347365 19.440226865263504 6.120226865263497
11.5456805957905 15.918773134736501 17.1653194042095
19.595226865263506 22.6353194042095 26.956226865263496
4.198680595790506 8.014226865263502 27.0877731347365
15.115226865263502 17.2263194042095 12.823134326317515
25.122773134736498 14.1837731347365 17.723226865263506
10.523226865263503 22.9027731347365 27.163773134736502
14.6353194042095 24.134226865263493 22.405226865263494
1.245226865263497 1.036226865263501 31.7683194042095
15.7947731347365 4.168680595790505 27.0013194042095
13.7407731347365 24.7207731347365 24.1387731347365
11.327680595790497 10.142226865263503 0.2563194042095027
22.547680595790496 13.129226865263497 11.938226865263495
21.512226865263493 24.8937731347365 26.1002268652635
8.345134326317506 29.9627731347365 27.9803194042095
6.3107731347365 5.558680595790506 14.2237731347365
10.894226865263498 2.705226865263505 15.5032268652635
2.0922268652634983 19.8947731347365 24.765226865263493
9.456226865263496 24.8513194042095 28.0787731347365
26.6187731347365 16.7207731347365 27.3807731347365
12.644134326317513 20.806226865263504 29.355773134736502
10.5487731347365 9.0057731347365 30.1203194042095
13.8007731347365 15.1707731347365 20.6682268652635
6.386773134736501 3.6532268652634983 19.4577731347365
0.5877731347364996 14.6616805957905 3.137680595790499
0.4776805957905026 15.5443194042095 3.3957731347364994
14.105226865263496 21.588680595790507 5.950773134736501
7.348773134736501 9.554226865263495 15.9617731347365
4.333226865263498 30.7037731347365 2.6992268652635047
20.797680595790496 9.8142268652635 5.281319404209501
17.534680595790505 5.868226865263502 19.4017731347365
6.2102268652635 19.324226865263505 6.3087731347365
7.720319404209501 11.835680595790492 13.115226865263502
19.9812268652635 16.5687731347365 15.1997731347365
7.293226865263499 11.857773134736501 13.7907731347365
27.5363194042095 15.480680595790503 17.794773134736502
15.159680595790505 17.499680595790508 28.723865673682496
1.9947731347364996 4.851680595790498 5.340226865263496
23.5822268652635 4.283773134736501 20.812226865263504
28.8033194042095 31.7992268652635 26.1707731347365
21.5707731347365 13.681226865263504 30.6383194042095
7.5456805957905 26.126773134736503 27.616773134736498
6.828680595790502 5.3597731347365 19.2207731347365
25.5612268652635 28.8468656736825 23.9092268652635
18.1757731347365 8.747773134736502 22.7527731347365
3.810680595790501 18.9797731347365 15.246226865263502
0.03322686526350083 24.0127731347365 24.2797731347365
17.455226865263505 21.297773134736502 1.1402268652635001
5.4177731347365 18.5977731347365 7.290680595790505
29.5987731347365 16.070773134736502 8.6267731347365
10.385226865263498 23.172773134736502 5.606680595790493
25.474773134736502 28.227773134736502 4.4452268652635
15.992226865263497 27.5277731347365 0.0272268652635006
11.992773134736499 29.124226865263502 3.706773134736501
29.6023194042095 20.602680595790503 2.2886805957904954
4.312680595790496 4.4437731347364995 28.105226865263496
14.155773134736501 10.0727731347365 23.7287731347365
29.9413194042095 23.280226865263494 2.2162268652635007
5.052226865263499 10.5732268652635 21.233773134736502
0.7127731347364996 24.7042268652635 3.944226865263495
2.6807731347364996 11.0732268652635 2.7477731347364998
23.9722268652635 0.6462268652635004 27.2547731347365
5.5642268652635 21.9937731347365 3.8442268652635008
9.546226865263499 30.378226865263507 31.974226865263496
12.457680595790492 21.9277731347365 6.493680595790494
26.6937731347365 21.903680595790505 1.904226865263503
14.7227731347365 2.8827731347364995 29.3913194042095
30.4543194042095 28.0732268652635 17.789226865263494
30.7987731347365 17.014319404209502 28.0847731347365
21.8447731347365 6.589680595790497 21.9976805957905
0.8196805957905013 20.1447731347365 14.990226865263502
15.126773134736501 19.3257731347365 31.232226865263506
13.2347731347365 13.2027731347365 18.131226865263493
3.4132268652635034 9.606226865263501 5.537773134736501
23.3387731347365 9.246226865263502 18.8617731347365
13.517773134736501 2.927226865263499 22.5687731347365
18.3107731347365 8.038134326317504 8.477226865263496
24.438226865263495 16.2747731347365 13.305773134736501
14.084680595790502 14.6407731347365 26.629226865263497
23.354226865263506 4.718319404209499 13.501226865263497
17.1257731347365 15.7707731347365 11.4747731347365
14.3112268652635 3.3137731347365005 6.594680595790493
30.2777731347365 3.296680595790505 3.042226865263501
5.024773134736501 31.001773134736503 29.045226865263494
21.9417731347365 21.2257731347365 12.7622268652635
25.9097731347365 27.1927731347365 24.8592268652635
6.4487731347365 32.0543194042095 10.5427731347365
25.6387731347365 4.5672268652635 14.0947731347365
0.8227731347365008 8.308773134736501 5.091226865263501
30.911226865263494 12.2102268652635 24.770319404209502
25.1183194042095 13.833226865263498 13.536226865263501
7.1327731347364995 22.4677731347365 29.328226865263495
10.0197731347365 1.9132268652635034 12.482773134736501
19.534680595790505 30.7953194042095 26.9727731347365
13.679226865263495 0.5592268652635042 13.9022268652635
17.570773134736502 8.206226865263496 5.4676805957904975
29.805773134736498 12.398226865263503 22.2357731347365
15.2567731347365 2.6997731347364997 30.8627731347365
28.5703194042095 14.5827731347365 23.5642268652635
18.523319404209502 5.2287731347365 28.8917731347365
16.917226865263494 18.3237731347365 25.572226865263495
30.5733194042095 13.174226865263499 21.8232268652635
31.9153194042095 15.4417731347365 0.5872268652634958
23.8103194042095 9.772226865263498 20.2863194042095
12.3782268652635 24.8743194042095 22.6537731347365
0.03177313473650045 23.343319404209502 22.4387731347365
1.461226865263498 27.062226865263504 17.732226865263506
12.6227731347365 20.3947731347365 28.763226865263498
7.341680595790493 24.5167731347365 14.7767731347365
23.1927731347365 30.7663194042095 3.1967731347364996
14.246226865263502 0.9432268652635045 5.225226865263501
6.064680595790506 23.720226865263506 3.9877731347365
24.5372268652635 4.286226865263501 22.4727731347365
13.069226865263495 21.724773134736502 29.6013194042095
23.693226865263505 21.114226865263497 8.0677731347365
10.3137731347365 28.8807731347365 5.595226865263498
10.779773134736502 24.788773134736502 30.393226865263493
29.4362268652635 14.684226865263504 23.5867731347365
26.5183194042095 8.683773134736501 25.2102268652635
17.9327731347365 19.0327731347365 27.7162268652635
3.158226865263501 30.9392268652635 31.1403194042095
4.030226865263501 12.336226865263498 23.5527731347365
0.6742268652634991 5.488226865263499 13.3047731347365
4.833226865263498 1.8272268652635049 21.9122268652635
2.059773134736501 30.8123194042095 2.0967731347365
21.4037731347365 21.7403194042095 12.935680595790501
20.7432268652635 2.526226865263503 8.9107731347365
31.9122268652635 11.3992268652635 22.9487731347365
13.1693194042095 2.0762268652635 2.5047731347364994
14.9237731347365 29.5177731347365 20.13668059579051
25.7757731347365 21.580226865263505 2.1916805957905012
4.911226865263501 24.38668059579051 4.570680595790506
9.973134326317506 25.003773134736498 28.6527731347365
14.353226865263501 18.0552268652635 5.7437731347365
7.652773134736501 5.453226865263495 18.384226865263493
29.181773134736503 31.0187731347365 24.894226865263498
5.6323194042095 8.3442268652635 2.9267731347365
25.5267731347365 23.664226865263494 31.834226865263496
0.02877313473650034 5.1526805957905 11.3782268652635
12.0967731347365 3.9886805957904983 30.5847731347365
9.329319404209503 12.5307731347365 1.4657731347364997
27.3897731347365 12.3537731347365 25.3232268652635
0.1607731347365 15.5426805957905 2.692680595790506
18.6787731347365 13.3917731347365 11.6287731347365
25.2006805957905 11.0707731347365 32.050226865263504
13.187226865263504 9.614226865263497 30.1677731347365
0.7762268652635029 19.3322268652635 27.432226865263495
22.2432268652635 3.529680595790495 1.6647731347364996
15.203226865263495 4.1592268652634985 19.6957731347365
29.7527731347365 22.9847731347365 1.0852268652635004
0.9717731347365 27.3997731347365 18.3157731347365
16.068680595790497 7.6122268652635015 18.9722268652635
18.291773134736502 3.407226865263503 27.205226865263505
