27.128319404209503 1.941226865263495 9.892773134736501
4.653226865263498 26.035226865263503 5.453773134736501
15.7943194042095 19.462226865263496 11.2317731347365
11.3747731347365 11.7502268652635 28.2577731347365
4.0737731347365 7.322226865263495 22.711226865263505
24.279226865263503 28.8507731347365 16.589226865263505
4.743226865263502 22.467680595790497 9.104226865263499
26.2267731347365 10.0597731347365 9.834226865263496
7.9292268652634945 1.8102268652634947 28.593226865263496
15.979319404209502 11.5977731347365 2.8382268652635005
30.3793194042095 2.5072268652634975 16.724773134736502
26.4357731347365 17.4152268652635 29.4247731347365
22.13068059579051 18.2566805957905 7.3962268652635
0.3976805957905043 12.587226865263496 8.393319404209503
27.2847731347365 25.297773134736502 20.275226865263498
6.662226865263499 21.0543194042095 0.2532268652634997
14.7427731347365 15.3807731347365 19.0942268652635
17.4662268652635 24.7953194042095 13.8267731347365
0.001680595790503503 26.6427731347365 26.6687731347365
26.8977731347365 21.575226865263495 17.285773134736502
29.4247731347365 25.474226865263496 15.196226865263505
14.861226865263497 25.9103194042095 22.2297731347365
5.636680595790494 4.440226865263504 13.687226865263504
1.2987731347365 8.257226865263497 26.7583194042095
1.2742268652635005 8.3842268652635 15.3657731347365
2.831773134736501 0.6227731347364998 20.5552268652635
4.212226865263496 29.436773134736498 31.4537731347365
31.5703194042095 8.752226865263502 14.5097731347365
30.9387731347365 9.2532268652635 9.362226865263501
31.611773134736502 18.5127731347365 19.692773134736502
27.119226865263506 14.113773134736501 27.1583194042095
10.671773134736501 28.119773134736498 29.9597731347365
15.711226865263498 13.522226865263498 10.2592268652635
0.9226805957904958 0.5062268652634998 11.7377731347365
17.959226865263496 17.859680595790508 1.5042268652634974
18.8637731347365 8.5947731347365 25.8513194042095
4.712226865263496 28.937226865263504 29.065773134736503
5.377226865263502 17.074680595790497 20.0017731347365
26.5277731347365 10.6192268652635 32.1597731347365
17.2757731347365 18.9707731347365 14.318226865263505
3.2317731347364997 28.1567731347365 11.074226865263505
25.3933194042095 21.7197731347365 10.649773134736499
29.9447731347365 22.5247731347365 17.0277731347365
7.1862268652634995 16.844680595790507 15.060226865263495
28.0467731347365 8.4607731347365 25.3123194042095
14.525226865263498 4.0367731347364995 23.2967731347365
14.5687731347365 19.0757731347365 4.2896805957905
14.180319404209502 26.620680595790503 18.583226865263505
3.0842268652634957 14.987680595790493 14.253319404209503
6.636773134736501 21.1286805957905 7.489226865263497
2.435680595790501 21.590226865263496 23.798226865263494
25.009226865263493 10.3992268652635 29.4187731347365
24.807226865263495 2.462680595790502 21.8293194042095
19.279226865263503 24.3232268652635 3.144680595790504
30.180319404209502 31.626226865263497 4.969773134736501
3.2661343263175127 32.0253194042095 20.405226865263494
12.938226865263495 32.0947731347365 8.943226865263505
10.686680595790506 30.9512268652635 4.383773134736501
24.6952268652635 0.6283194042095026 12.6857731347365
28.759226865263493 31.0027731347365 7.623773134736501
3.0762268652635 9.2407731347365 15.2567731347365
19.4417731347365 7.687773134736501 7.7176805957904975
0.2952268652635013 19.3407731347365 19.4887731347365
18.9447731347365 0.4347731347365009 10.179226865263495
0.5482268652635014 0.8262268652635001 4.558226865263499
8.7237731347365 23.587226865263496 20.5867731347365
10.428226865263504 17.504226865263497 24.116773134736498
4.3552268652634964 16.8473194042095 23.1067731347365
28.1923194042095 21.206226865263496 13.812680595790496
24.715319404209502 25.4877731347365 11.8932268652635
17.199680595790497 11.112226865263501 24.1557731347365
25.5847731347365 7.4236805957905005 11.0182268652635
18.735226865263506 4.457773134736501 30.3837731347365
10.058773134736501 1.1167731347364995 24.163226865263503
2.6627731347365007 18.8977731347365 5.832773134736501
6.4427731347365 29.772226865263498 15.296773134736501
25.086226865263505 25.9263194042095 20.65468059579051
27.2223194042095 30.4343194042095 7.2652268652635
18.4392268652635 4.933226865263499 18.9007731347365
19.90468059579051 2.4236805957905005 6.508226865263502
18.7577731347365 10.086226865263498 25.1983194042095
30.1553194042095 26.474226865263496 9.220226865263498
30.410226865263503 23.757226865263497 4.4877731347365
0.11668059579049839 5.610773134736501 8.492226865263497
25.4723194042095 27.8232268652635 19.297773134736502
16.744226865263506 16.4837731347365 30.289226865263494
21.9347731347365 7.971226865263496 7.6342268652635
25.2222268652635 22.0427731347365 17.7177731347365
13.309773134736501 28.003773134736498 4.411226865263501
4.6637731347365 29.2607731347365 22.565226865263504
10.5377731347365 18.1862268652635 30.9193194042095
0.870226865263497 13.651226865263503 10.1342268652635
11.2337731347365 19.4902268652635 0.31322686526349486
27.608226865263497 24.7097731347365 6.2127731347365
13.4082268652635 10.118226865263502 31.5582268652635
4.492226865263497 30.0217731347365 25.383226865263502
14.3217731347365 8.962226865263496 19.6377731347365
7.1607731347365 16.968226865263496 15.9127731347365
25.8052268652635 29.276226865263503 22.7327731347365
11.773773134736501 26.2483194042095 24.8657731347365
23.373226865263497 0.4547731347365005 24.764226865263502
12.174680595790505 14.8966805957905 15.7617731347365
11.9086805957905 17.4067731347365 22.0847731347365
14.655773134736501 20.8423194042095 2.6192268652634993
5.294226865263504 4.5227731347365 22.0797731347365
5.904226865263503 12.4747731347365 4.475680595790493
25.760226865263498 29.3517731347365 10.901226865263503
25.9547731347365 2.5447731347365004 9.6367731347365
8.901773134736501 22.4857731347365 13.7837731347365
9.9707731347365 26.8967731347365 9.5002268652635
14.8857731347365 16.498865673682502 6.087041787371504
23.2937731347365 1.7576805957905037 1.6792268652634945
23.637226865263493 15.2137731347365 30.172773134736502
0.850680595790493 6.921319404209502 8.552773134736501
9.498680595790503 1.0762268652635 29.930773134736498
12.331773134736501 12.522226865263498 15.313226865263495
23.8107731347365 4.5097731347365 4.927226865263499
8.5246805957905 26.5372268652635 8.105680595790503
30.1987731347365 22.773226865263503 5.1892268652635
24.5707731347365 23.955226865263505 1.4762268652634987
5.044680595790496 26.2843194042095 19.1592268652635
2.0182268652635003 2.1832268652634994 27.691226865263495
19.935226865263495 19.2027731347365 1.6122268652635015
2.6532268652634983 15.331226865263496 1.1507731347365002
9.3237731347365 15.653226865263498 10.971226865263496
25.5972268652635 18.6802268652635 7.152773134736501
5.017773134736501 13.7597731347365 28.340319404209502
29.6873194042095 26.9737731347365 14.7222268652635
5.9572268652635 14.2837731347365 27.637226865263493
5.3812268652635 3.3657731347365 18.861226865263497
17.739226865263497 27.9037731347365 18.477773134736502
15.3752268652635 19.532226865263503 29.059773134736503
16.887226865263493 5.629680595790504 14.789226865263501
1.7442268652634993 9.389773134736501 1.4067731347365005
14.4117731347365 25.907319404209503 22.6507731347365
18.977773134736502 7.032226865263503 21.630226865263502
13.9332268652635 8.110226865263499 8.522226865263498
3.033226865263501 16.4207731347365 9.0947731347365
12.8202268652635 8.563226865263495 23.0707731347365
3.5157731347365004 10.392773134736501 31.7833194042095
29.1687731347365 4.918226865263499 3.665680595790505
1.911226865263501 2.877226865263502 26.2927731347365
18.8243194042095 23.744226865263506 31.442680595790506
11.9662268652635 10.1132268652635 18.3967731347365
0.31322686526349486 1.7232268652634986 24.161226865263494
2.3862268652635024 27.2192268652635 13.982226865263499
7.445680595790506 5.287773134736501 3.421773134736501
26.3563194042095 16.0257731347365 27.8387731347365
13.5917731347365 7.4392268652635 10.4362268652635
28.4863194042095 7.202226865263505 24.3323194042095
1.013680595790504 2.6392268652635025 5.402773134736501
13.766680595790504 23.7487731347365 28.492773134736503
7.179319404209497 5.618226865263502 2.8957731347364994
27.459226865263496 21.1263194042095 1.806226865263504
15.956773134736501 10.9287731347365 2.425226865263504
19.4367731347365 23.182226865263495 15.4937731347365
8.7656805957905 2.0336805957905 29.3082268652635
4.0107731347365 20.6503194042095 25.187226865263504
17.0333194042095 2.2576805957905037 3.782319404209499
14.7667731347365 9.868226865263502 3.7957731347365
7.142773134736501 7.1402268652635 3.4292268652634945
25.104226865263506 29.2117731347365 31.9797731347365
10.252226865263502 28.450226865263495 9.8722268652635
7.486226865263497 24.626226865263497 3.4402268652635044
19.6583194042095 32.119319404209506 10.071226865263505
30.487680595790508 25.387226865263493 25.9723194042095
32.1613194042095 19.797773134736502 18.858226865263497
17.852226865263496 10.853226865263501 24.3243194042095
2.8627731347365 3.6532268652634983 13.0972268652635
19.142319404209502 7.092226865263498 9.488680595790498
30.6387731347365 7.059226865263504 30.732226865263506
0.7207731347365005 18.4422268652635 7.9007731347365
25.1363194042095 16.1887731347365 28.181773134736503
29.2162268652635 7.736226865263497 6.3042268652634945
14.735773134736501 18.9662268652635 2.314680595790506
20.4087731347365 13.3022268652635 31.687773134736503
16.011319404209498 10.669680595790496 4.7472268652634995
2.822773134736501 5.549226865263499 0.522226865263498
31.6913194042095 12.667226865263501 8.851226865263499
6.919319404209499 22.212680595790502 22.6037731347365
15.541226865263503 26.3967731347365 19.1107731347365
26.099226865263496 22.3407731347365 16.393226865263493
22.3127731347365 18.3166805957905 31.4812268652635
25.325226865263495 17.9067731347365 5.629773134736499
10.3992268652635 27.0347731347365 26.260226865263498
22.3367731347365 19.9217731347365 2.399773134736501
23.872319404209502 1.6372268652635 22.361226865263497
22.2557731347365 20.3837731347365 25.334226865263496
6.476773134736501 16.7783194042095 11.944226865263495
26.663226865263503 12.892773134736501 25.855226865263496
28.327226865263505 13.2267731347365 25.152226865263493
17.8667731347365 19.1147731347365 21.003319404209503
12.0762268652635 27.244773134736498 31.3867731347365
9.234680595790493 25.9487731347365 19.149226865263493
18.0627731347365 23.0727731347365 30.3442268652635
30.7932268652635 9.3167731347365 20.8217731347365
15.0567731347365 23.8847731347365 7.3696805957904985
12.919226865263504 17.248226865263497 7.488773134736499
2.530773134736501 31.7962268652635 21.4577731347365
6.965226865263496 8.456226865263496 18.8777731347365
31.9092268652635 26.0187731347365 23.057226865263495
13.8697731347365 2.9732268652634986 18.5947731347365
4.0527731347364995 16.2746805957905 0.20868059579049714
9.5317731347365 19.084226865263496 4.198680595790506
28.9923194042095 21.470226865263506 24.552773134736498
23.1363194042095 8.9267731347365 27.372773134736498
27.7453194042095 5.2127731347365 22.651319404209502
18.7757731347365 13.543773134736501 31.840319404209502
18.717226865263505 13.7687731347365 0.5867731347365002
8.154226865263503 6.923134326317509 22.923226865263494
7.803773134736501 12.8397731347365 19.4877731347365
18.2252268652635 5.774773134736501 31.0267731347365
16.572226865263495 23.873680595790503 14.2457731347365
21.1417731347365 6.566226865263495 7.9017731347365
31.003773134736498 3.0612268652634995 16.6437731347365
3.444226865263495 16.935226865263495 16.1377731347365
11.4057731347365 27.0687731347365 24.541773134736502
5.3627731347365 8.0697731347365 18.069226865263495
18.5017731347365 7.204865673682505 31.6537731347365
17.548226865263494 18.7877731347365 1.644226865263498
25.5552268652635 19.840226865263496 11.848319404209501
12.4662268652635 4.8087731347365 21.798226865263494
8.3917731347365 12.299226865263499 16.6003194042095
24.520226865263503 1.7786805957905045 4.668773134736501
8.895680595790495 23.0927731347365 1.5142268652635025
12.9877731347365 31.2847731347365 3.2852268652635033
3.249226865263502 13.985226865263499 16.120226865263497
12.036319404209504 4.6556805957905 16.932226865263495
2.1637731347365 0.21677313473650095 11.711680595790497
9.157319404209499 12.7797731347365 24.371865673682507
8.624226865263502 3.0227731347365 29.6407731347365
22.1487731347365 29.7987731347365 6.5732268652635
30.9817731347365 29.6587731347365 25.9283194042095
25.248226865263497 27.5867731347365 16.890226865263493
27.3857731347365 15.981226865263501 20.4152268652635
27.927680595790505 17.8247731347365 29.0947731347365
19.694226865263495 3.8552268652634964 8.2502268652635
13.845226865263498 25.236773134736502 23.7192268652635
30.559773134736503 30.5297731347365 29.5533194042095
14.911319404209504 16.2897731347365 4.6196805957904985
22.7647731347365 10.967226865263498 27.2157731347365
26.5432268652635 6.617773134736501 14.091773134736501
14.107226865263499 1.8006805957904959 26.8777731347365
8.901773134736501 7.966773134736501 19.9617731347365
9.1402268652635 5.611226865263497 28.7363194042095
21.818226865263505 25.0563194042095 6.169134326317504
10.110226865263499 9.029226865263503 1.7726805957905043
10.571134326317505 17.648226865263503 23.293134326317514
30.8277731347365 21.6407731347365 13.3537731347365
10.988680595790498 21.827226865263505 25.812773134736503
3.0306805957905 20.5837731347365 15.078773134736501
10.136226865263502 23.866226865263506 18.8687731347365
12.2297731347365 28.741773134736498 5.20013432631751
10.251680595790504 23.3682268652635 2.6936805957904966
7.517226865263503 1.4502268652634953 19.3377731347365
25.0347731347365 25.8022268652635 11.121226865263502
32.096226865263496 25.741773134736498 27.239773134736502
20.4247731347365 30.7893194042095 30.1187731347365
13.334226865263496 14.5777731347365 16.2417731347365
31.244773134736498 4.488226865263499 14.873773134736501
16.1286805957905 28.2663194042095 26.556773134736503
3.5726805957905015 21.355773134736502 25.536226865263494
11.524773134736499 27.550680595790496 28.468226865263496
30.724773134736502 19.703226865263495 28.6793194042095
28.2697731347365 4.148226865263503 19.8247731347365
26.682226865263495 13.0032268652635 27.405226865263494
28.8307731347365 8.6697731347365 15.357226865263499
18.7077731347365 3.8486805957904977 26.2137731347365
7.469680595790493 31.4117731347365 5.245226865263497
19.3117731347365 31.6927731347365 19.6007731347365
11.1522268652635 25.185226865263495 2.7642268652635025
10.7117731347365 26.686773134736498 13.5487731347365
11.6147731347365 3.232226865263499 18.374226865263502
10.901226865263503 10.4602268652635 4.073680595790506
15.740226865263502 1.6576805957904952 1.8152268652635044
19.8017731347365 10.0942268652635 8.5277731347365
1.8842268652635 5.205226865263505 26.814773134736498
23.705226865263505 8.141226865263498 22.1917731347365
11.1952268652635 28.8047731347365 31.147226865263498
13.601226865263499 14.6997731347365 28.4087731347365
6.528226865263498 5.940226865263504 4.743226865263502
28.619773134736498 3.0512268652634944 28.4567731347365
15.859226865263501 27.608226865263497 19.672226865263504
21.928773134736502 8.959226865263496 4.0387731347365
1.5246805957904996 31.3687731347365 11.2412268652635
14.2897731347365 10.107226865263499 28.578226865263495
7.3752268652635 11.4692268652635 23.6427731347365
29.4847731347365 23.949226865263505 16.462226865263496
4.039226865263501 27.227773134736502 6.5717731347365
1.5592268652635042 24.8387731347365 22.2217731347365
28.4077731347365 3.181680595790496 29.308865673682504
7.026680595790495 27.139226865263502 23.7197731347365
17.236226865263497 25.440773134736503 6.081773134736501
11.855226865263496 7.5002268652635 22.232226865263506
14.5187731347365 15.7737731347365 3.9622268652634958
29.8682268652635 31.308773134736498 20.3137731347365
28.6503194042095 3.3657731347365 17.700319404209502
31.845226865263506 7.2927731347365 30.264319404209502
20.7167731347365 14.5417731347365 15.8913194042095
11.503680595790499 14.1217731347365 6.5097731347365
19.3407731347365 14.684226865263504 9.8992268652635
25.9937731347365 28.663773134736502 11.123226865263497
7.4337731347365 10.747773134736502 23.9677731347365
19.5717731347365 18.2837731347365 7.003680595790499
13.2617731347365 25.687226865263504 23.1877731347365
5.333226865263498 29.2773194042095 22.30413432631751
18.9302268652635 1.3827731347364995 9.497680595790499
0.9107731347365 11.892319404209498 24.0193194042095
26.783226865263494 26.7327731347365 20.733226865263497
19.977773134736502 24.2656805957905 19.1303194042095
18.604226865263506 19.4937731347365 21.480226865263496
8.8807731347365 1.2877731347365007 29.410773134736502
14.238773134736501 30.248773134736503 14.6207731347365
15.534680595790505 19.9667731347365 28.9707731347365
26.9773194042095 10.4797731347365 16.250226865263507
24.3547731347365 29.6047731347365 2.589226865263498
20.0882268652635 25.276226865263503 19.1433194042095
24.7467731347365 0.09477313473650106 14.7737731347365
30.3133194042095 3.3197731347365007 3.177226865263499
29.541773134736502 6.613680595790498 31.458226865263505
25.9453194042095 25.0693194042095 12.2607731347365
31.1737731347365 27.777226865263493 27.9157731347365
18.812226865263504 26.238319404209502 22.5627731347365
25.877226865263502 28.797226865263504 24.5313194042095
26.1397731347365 11.748680595790503 16.3063194042095
0.8966805957904995 8.177680595790505 0.5842268652634957
8.587226865263496 1.5197731347365 29.976226865263506
21.3322268652635 8.745773134736499 2.7107731347365007
28.4077731347365 3.4717731347365 18.7872268652635
13.728226865263501 19.5217731347365 3.235226865263499
0.16322686526350338 7.3657731347365 10.476226865263499
12.9602268652635 16.9647731347365 23.8322268652635
31.754226865263497 9.617226865263497 13.735226865263499
10.430773134736501 6.724226865263496 28.8423194042095
21.101226865263506 30.210865673682505 17.0177731347365
12.3797731347365 2.7627731347365003 18.812226865263504
9.594319404209504 18.312226865263504 31.3777731347365
27.5057731347365 30.7132268652635 14.053226865263504
15.0672268652635 1.3997731347365008 30.8077731347365
29.7467731347365 15.4997731347365 14.4176805957905
11.5387731347365 24.962226865263496 15.181680595790496
2.4617731347365 15.4837731347365 14.5477731347365
20.2807731347365 9.096226865263496 9.498226865263497
14.6982268652635 17.8507731347365 4.1167731347364995
2.4362268652634995 19.5462268652635 15.3267731347365
6.307226865263495 23.360226865263506 15.0477731347365
19.992226865263497 14.867226865263497 4.3617731347365005
6.799680595790505 27.0672268652635 30.434773134736503
28.5787731347365 31.2907731347365 14.770226865263503
3.2102268652635004 26.055773134736498 16.5372268652635
19.1137731347365 26.4207731347365 24.059226865263504
14.5537731347365 19.601680595790498 3.3292268652635
9.043226865263499 8.856319404209504 0.7997731347365011
22.258226865263502 13.1537731347365 20.5237731347365
11.825773134736501 1.7947731347365004 8.168226865263499
7.604226865263499 19.2842268652635 5.344680595790493
9.7337731347365 10.674680595790505 13.5187731347365
13.7132268652635 11.754226865263497 28.8317731347365
8.294226865263504 11.353226865263501 13.8382268652635
5.720226865263498 4.828773134736501 3.2577731347364995
14.3142268652635 31.7543194042095 21.529226865263503
31.2623194042095 26.919226865263504 8.279680595790495
28.023226865263503 18.008226865263502 24.6526805957905
26.7687731347365 21.9737731347365 2.6647731347364996
7.7372268652635015 28.450226865263495 16.995226865263497
24.050226865263504 10.105226865263496 29.7707731347365
31.494319404209502 17.437226865263504 19.897226865263498
19.069226865263495 3.701680595790492 7.864773134736501
25.467226865263505 12.2827731347365 8.0396805957905
26.8887731347365 12.560226865263495 9.463773134736499
17.7282268652635 3.229226865263499 15.6777731347365
16.446226865263505 19.3857731347365 15.802319404209502
30.6537731347365 7.7187731347365 10.276773134736501
3.161226865263501 0.5612268652634995 30.866773134736498
24.678134326317505 29.2317731347365 1.9392268652634996
4.485226865263499 30.437226865263504 24.723226865263506
22.8843194042095 28.5577731347365 2.6096805957904934
8.427680595790505 14.8467731347365 17.098226865263506
24.9613194042095 7.434226865263504 4.2572268652634975
6.254226865263497 16.0887731347365 10.364226865263497
21.4417731347365 9.1663194042095 31.246865673682507
5.949680595790497 0.9672268652634983 27.7907731347365
16.5787731347365 28.0237731347365 10.688680595790501
18.2047731347365 17.819226865263495 15.113773134736501
3.0302268652635007 13.778680595790505 17.4817731347365
22.5517731347365 17.7067731347365 7.550226865263504
18.4902268652635 19.3957731347365 19.1857731347365
4.7097731347364995 8.0127731347365 26.956226865263496
13.561134326317514 21.8475880568445 29.4373194042095
16.6137731347365 6.127226865263502 19.77968059579051
22.5972268652635 29.047773134736502 1.6572268652635032
4.3141343263175145 5.7157731347365 29.9463194042095
21.7743194042095 25.007226865263497 1.7466805957904938
23.2667731347365 27.5307731347365 16.8112268652635
13.1277731347365 19.1677731347365 10.796226865263499
2.6506805957905044 2.075773134736501 22.6173194042095
21.464226865263505 28.4087731347365 17.3793194042095
27.6957731347365 13.074226865263505 7.3182268652635045
27.6493194042095 7.3752268652635 2.6586805957905
10.801226865263494 29.0043194042095 30.827226865263505
20.378226865263507 14.7267731347365 3.6797731347365
28.0367731347365 18.5612268652635 24.489226865263497
31.3237731347365 13.6492268652635 12.3807731347365
4.162680595790505 8.697226865263495 27.117773134736503
26.0077731347365 12.9327731347365 1.2166805957904927
13.773226865263503 5.5647731347365 1.5082268652635022
6.8377731347365 17.495226865263497 16.245226865263497
17.8286805957905 5.748773134736501 13.621680595790494
30.648319404209502 28.985319404209502 26.554226865263495
8.002226865263502 2.339226865263498 10.1952268652635
31.879226865263497 12.7277731347365 6.0002268652635
22.400226865263498 16.0407731347365 28.901319404209502
22.2252268652635 10.5137731347365 13.127226865263502
25.2817731347365 5.778226865263498 14.581226865263496
14.876226865263497 17.4517731347365 2.4912268652634992
27.611773134736502 22.761865673682507 26.9567731347365
17.143226865263493 15.6907731347365 23.1587731347365
13.3127731347365 6.9392268652635 10.1132268652635
25.422680595790496 10.532319404209499 16.965226865263496
21.352226865263496 19.726226865263506 0.7357731347365011
9.5762268652635 24.962226865263496 18.307226865263495
1.6092268652635013 21.8067731347365 12.690226865263504
13.535226865263503 6.652773134736501 22.6528656736825
14.1207731347365 1.6126805957904935 19.0807731347365
9.029226865263503 9.4447731347365 12.434773134736501
22.7797731347365 18.599226865263496 17.5657731347365
0.4207731347364998 14.3662268652635 10.456773134736501
7.6806805957905055 15.2597731347365 10.6982268652635
16.352680595790503 31.8267731347365 31.7133194042095
23.275226865263498 3.6282268652634997 0.7372268652635015
6.825773134736501 1.1141343263175116 17.824226865263505
3.830226865263505 26.595226865263506 6.2572268652634975
23.0882268652635 9.024773134736499 29.2557731347365
14.0097731347365 16.895226865263503 3.644680595790504
4.0713194042095004 19.518226865263493 30.9847731347365
23.867226865263497 8.148226865263503 21.389319404209502
22.0777731347365 26.791226865263503 28.4937731347365
1.3936805957904994 23.427134326317514 23.8873194042095
25.244226865263506 20.9767731347365 16.8382268652635
5.7857731347365 30.4703194042095 11.4302268652635
4.360226865263499 24.366773134736498 7.3932268652635
29.2127731347365 7.002226865263502 30.324226865263505
1.4207731347364998 23.818226865263505 22.0737731347365
15.428226865263504 14.7102268652635 19.1196805957905
28.146226865263493 24.381226865263493 27.074226865263505
28.3713194042095 19.200226865263495 12.7017731347365
20.855773134736502 19.6417731347365 2.4352268652634947
0.5976805957904929 21.802680595790505 5.279680595790495
31.8503194042095 22.239680595790503 11.0027731347365
13.3017731347365 13.773773134736501 1.2907731347365008
17.727226865263496 5.5182268652635 31.1797731347365
16.694226865263495 22.5627731347365 6.011226865263502
24.274226865263493 2.1707731347365 23.6772268652635
17.875319404209502 17.1892268652635 31.497773134736498
29.3673194042095 0.8936805957904994 4.2302268652634964
31.025226865263498 27.007865673682502 27.8817731347365
6.989773134736501 30.056773134736503 16.1087731347365
8.203226865263495 13.5732268652635 16.842226865263505
7.805319404209502 25.398226865263503 29.863319404209502
21.0697731347365 31.414226865263494 17.775226865263498
20.206680595790502 12.4717731347365 30.9207731347365
29.989773134736502 15.2207731347365 15.202226865263505
24.5087731347365 3.3086805957905057 30.9387731347365
29.5313194042095 12.5552268652635 27.7597731347365
22.8943194042095 0.45168059579049213 27.9427731347365
1.3792268652634974 21.017319404209502 19.4817731347365
3.0157731347365004 14.6857731347365 1.674226865263499
8.213773134736499 7.578226865263495 0.5762268652635001
31.639226865263502 15.622319404209502 25.2867731347365
29.9067731347365 1.6296805957905036 22.051226865263494
23.8013194042095 0.18277313473650025 21.0217731347365
5.1906805957904965 20.2557731347365 31.7957731347365
26.742773134736503 11.8177731347365 17.0167731347365
24.2252268652635 31.596226865263496 22.306226865263504
26.771226865263493 12.248226865263497 0.928226865263504
11.7057731347365 30.247226865263507 15.2827731347365
8.490680595790494 12.395773134736501 15.1537731347365
8.699226865263505 32.02986567368251 27.616773134736498
14.4437731347365 7.796226865263499 3.694226865263495
3.4732268652634986 8.426226865263494 26.7623194042095
2.162680595790505 2.1422268652635026 25.4387731347365
26.843226865263496 18.5017731347365 28.1687731347365
7.719226865263501 29.5413194042095 17.312226865263504
17.2147731347365 1.0866805957904973 1.4167731347365002
28.930773134736498 18.443226865263505 7.154226865263503
26.858773134736502 11.8237731347365 8.8937731347365
12.4387731347365 18.2423194042095 22.229226865263506
24.3337731347365 23.8803194042095 29.1517731347365
22.053226865263504 19.1953194042095 15.3632268652635
17.8107731347365 13.910226865263503 5.978226865263501
18.2257731347365 11.5037731347365 12.275226865263498
23.712319404209502 10.4497731347365 24.1477731347365
8.0687731347365 22.399226865263493 22.029319404209502
19.3837731347365 5.990680595790494 25.410773134736502
25.0107731347365 3.5202268652635027 13.7497731347365
20.2617731347365 17.655226865263494 7.4177731347365
29.102773134736502 23.892226865263503 16.0972268652635
28.3257731347365 2.5537731347365007 27.7737731347365
1.1672268652635012 22.996226865263502 9.609226865263501
26.928773134736502 21.4767731347365 25.8352268652635
5.8987731347365 0.31668059579050123 5.608226865263497
25.262226865263493 23.2297731347365 28.890226865263493
2.6277731347365005 4.6407731347365 32.1333194042095
24.2807731347365 3.3696805957904985 17.5157731347365
29.150226865263498 19.358226865263497 27.8977731347365
1.5162268652634978 23.4907731347365 25.3073194042095
31.128319404209503 11.9207731347365 3.4837731347365004
3.8722268652634995 24.255226865263502 6.944680595790501
19.379226865263497 12.223226865263499 19.2163194042095
2.559226865263504 11.7577731347365 21.643226865263493
23.875226865263507 19.4572268652635 1.229680595790498
1.803226865263504 2.7132268652635005 24.312773134736503
5.146319404209503 3.1702268652635013 3.964226865263498
25.648226865263503 27.5287731347365 17.8363194042095
12.857226865263499 2.398226865263503 25.7697731347365
25.233226865263497 8.779226865263503 19.459226865263496
18.0947731347365 17.5582268652635 0.6832268652634994
18.316226865263495 10.662226865263499 10.7412268652635
15.5486805957905 9.0167731347365 14.127226865263502
5.6937731347364995 26.5437731347365 4.488680595790498
15.639226865263502 29.1183194042095 28.001226865263497
8.482226865263499 0.4176805957905003 21.4877731347365
5.3747731347365 28.5073194042095 25.2687731347365
8.556134326317505 26.2907731347365 7.5771343263175055
28.437226865263504 5.309226865263504 8.1832268652635
20.8727731347365 27.000226865263507 23.574680595790497
2.130680595790494 1.6732268652635014 0.6482268652635028
17.239680595790503 23.027226865263493 25.9687731347365
4.0617731347365 30.985319404209502 4.6922268652635
28.9723194042095 7.1347731347365 29.0573194042095
8.407226865263503 23.029226865263503 19.9752268652635
12.2727731347365 14.196226865263505 15.8627731347365
2.2072268652635003 25.526226865263503 16.331226865263496
23.8687731347365 2.447226865263495 3.815773134736501
1.0797731347365005 20.7037731347365 13.5727731347365
25.373226865263497 21.044680595790496 22.2757731347365
18.323680595790506 23.2453194042095 29.7847731347365
9.9667731347365 17.444226865263495 22.8197731347365
19.888226865263498 31.498226865263497 22.0017731347365
31.3977731347365 21.045226865263494 12.4497731347365
29.474226865263496 23.4717731347365 6.728226865263501
30.3407731347365 1.5726805957905015 29.5607731347365
30.030226865263494 10.2237731347365 20.041226865263503
28.102226865263496 32.019773134736496 3.7597731347365
13.549226865263499 26.994773134736498 2.053680595790496
11.486226865263497 31.367226865263497 2.7757731347365002
15.4467731347365 13.5057731347365 19.5717731347365
1.7157731347364997 31.8393194042095 18.787680595790505
19.101226865263506 11.8437731347365 18.8267731347365
7.2627731347365 6.700226865263495 5.868680595790494
22.9057731347365 31.767226865263503 28.0087731347365
6.8977731347365 2.3487731347365006 26.5432268652635
24.3687731347365 2.1967731347364996 19.1467731347365
1.469773134736501 18.044226865263504 11.417226865263501
6.4632268652635005 27.1113194042095 21.830226865263505
7.993226865263502 1.1207731347365009 21.8027731347365
1.0717731347364996 6.687773134736501 0.5436805957905051
0.1592268652634985 24.137226865263493 21.686319404209502
11.4007731347365 28.1783194042095 25.7767731347365
1.2246805957905025 0.21622686526350066 4.2302268652634964
13.269226865263498 4.7337731347365 0.6742268652634991
5.9457731347365 19.9203194042095 27.1993194042095
9.4027731347365 15.860226865263499 10.203773134736501
13.452226865263505 8.3647731347365 11.046773134736501
7.6402268652635 25.231680595790507 25.0923194042095
14.975226865263501 8.846226865263496 14.046773134736501
11.102680595790503 26.378319404209503 11.161226865263501
10.8382268652635 12.594680595790493 6.8673194042095
20.4967731347365 0.0032268652634996897 5.0642268652635
17.2543194042095 2.4276805957905054 1.4892268652634968
27.5947731347365 22.488226865263506 3.702226865263505
3.607226865263499 21.3767731347365 14.1067731347365
22.514226865263502 28.770226865263503 16.269226865263498
26.105226865263496 11.9907731347365 15.168773134736501
6.5062268652635 15.8477731347365 16.134226865263493
8.4417731347365 1.8322268652635003 28.775226865263498
4.218680595790502 15.8957731347365 6.3322268652635
2.678226865263504 20.720134326317506 5.0732268652635
23.9157731347365 0.12877313473649998 5.853226865263501
20.5917731347365 5.959226865263496 19.0687731347365
17.4032268652635 11.3876805957905 5.023680595790495
31.117773134736503 23.025226865263498 6.3117731347365
18.912680595790505 22.777226865263493 28.3887731347365
31.386226865263502 19.5427731347365 28.520319404209502
18.7777731347365 31.8622268652635 17.4092268652635
7.5542268652634945 26.0727731347365 3.700773134736501
1.0466805957905052 1.1297731347364994 5.435226865263495
10.959226865263496 26.5147731347365 31.069226865263495
8.205226865263505 16.3166805957905 4.034680595790505
17.229226865263506 28.0967731347365 27.563226865263495
2.4876805957904935 6.120773134736501 0.35677313473649974
29.189680595790506 9.247680595790499 3.9447731347365007
26.6712268652635 14.1552268652635 1.522226865263498
13.230226865263496 2.0842268652634957 19.4932268652635
15.059226865263504 15.724226865263496 28.980226865263496
13.9397731347365 6.045226865263501 11.8322268652635
6.449226865263505 11.5727731347365 23.315226865263504
0.5366805957905001 5.0306805957905 8.0683194042095
9.9557731347365 18.2167731347365 31.154319404209502
19.1967731347365 31.1623194042095 12.5552268652635
1.1086805957905028 26.8317731347365 4.7027731347365
6.255773134736501 12.9692268652635 3.0922268652634983
17.3547731347365 12.9197731347365 19.9527731347365
24.036226865263494 28.6703194042095 2.333680595790497
22.8747731347365 3.5312268652634984 10.7977731347365
31.119226865263506 12.0182268652635 30.7132268652635
26.8293194042095 26.053226865263504 22.1943194042095
7.434226865263504 16.9153194042095 22.0432268652635
21.0197731347365 28.1657731347365 24.6887731347365
13.041226865263503 7.9362268652634995 22.9542268652635
18.14868059579051 11.706226865263496 25.1532268652635
21.996226865263502 27.732226865263506 26.2932268652635
26.496226865263502 29.3262268652635 2.825773134736501
30.1107731347365 27.404319404209502 2.8762268652634972
18.3687731347365 24.988773134736498 1.1802268652634993
27.889319404209502 25.4097731347365 7.594680595790493
10.247773134736502 6.956680595790502 27.1297731347365
5.241226865263499 11.6367731347365 19.9397731347365
18.753226865263507 14.088680595790493 10.2742268652635
28.6377731347365 21.3927731347365 24.3877731347365
29.5637731347365 3.1832268652634994 23.875773134736498
13.751680595790504 4.293773134736501 4.328773134736501
4.4877731347365 10.468226865263496 4.005680595790494
30.893226865263493 20.723680595790498 11.8632268652635
20.4047731347365 28.572226865263495 22.2377731347365
19.9343194042095 28.5383194042095 30.9843194042095
18.9692268652635 23.5972268652635 3.6297731347364994
13.711226865263498 10.299226865263499 15.2102268652635
20.3562268652635 8.4557731347365 0.5742268652635047
7.985226865263499 21.568226865263505 27.4827731347365
8.8397731347365 2.2017731347365004 9.8722268652635
4.261773134736501 3.3452268652634984 32.0567731347365
7.321226865263505 20.4427731347365 26.500773134736498
4.806865673682509 17.0797731347365 21.531680595790505
14.171680595790505 21.3707731347365 29.677773134736498
10.1676805957905 6.5792268652635 16.4117731347365
9.309226865263504 0.9456805957905061 26.7297731347365
19.336226865263505 0.25522686526350213 10.949226865263505
10.700773134736501 16.1737731347365 12.019226865263498
13.9328656736825 18.3703194042095 15.3267731347365
20.9587731347365 4.999226865263502 25.65768059579051
11.8397731347365 25.1457731347365 14.8217731347365
23.8907731347365 1.985773134736501 10.2987731347365
23.7087731347365 1.2332268652634966 12.952226865263505
16.685226865263495 28.746226865263502 16.6397731347365
29.0867731347365 18.1436805957905 9.2652268652635
23.7973194042095 19.6197731347365 6.972226865263501
13.0547731347365 31.5942268652635 8.5677731347365
31.2143194042095 30.0867731347365 25.9247731347365
10.010226865263498 31.9093194042095 23.8977731347365
6.7562268652635 16.381773134736502 23.398226865263503
7.542226865263501 31.6613194042095 4.8297731347365005
4.9517731347365 22.004226865263497 8.750680595790499
8.239226865263497 31.796319404209502 4.0637731347365005
2.4592268652634957 15.8752268652635 17.032226865263503
28.2607731347365 21.9957731347365 1.9092268652634985
21.4387731347365 29.193226865263505 0.6387731347364998
4.860680595790498 29.7773194042095 24.3577731347365
2.1632268652635034 13.269680595790504 17.696226865263505
9.111226865263497 18.7257731347365 21.7437731347365
30.4602268652635 14.2162268652635 19.6563194042095
0.7406805957904936 24.0147731347365 2.5982268652634986
31.5183194042095 8.087680595790502 31.6127731347365
30.7787731347365 2.397226865263498 24.254226865263497
19.102773134736502 0.5122268652635 10.449680595790497
25.9517731347365 29.9527731347365 2.5317731347365005
0.9567731347365012 18.0797731347365 10.6267731347365
5.992773134736501 28.119773134736498 6.2652268652635
6.117773134736501 1.9047731347364998 16.5133194042095
31.0413194042095 7.194226865263495 9.8587731347365
20.3013194042095 30.556226865263504 19.620226865263497
6.735680595790498 24.9113194042095 13.798226865263501
5.115226865263502 28.931773134736503 10.7147731347365
1.0002268652634996 23.0877731347365 31.9647731347365
6.6217731347365 4.8312268652634955 1.7752268652634982
10.5317731347365 18.014226865263502 1.1232268652634971
26.2817731347365 20.7457731347365 21.8087731347365
9.7757731347365 15.456226865263496 31.128319404209503
29.5227731347365 25.1652268652635 9.339680595790497
5.4056805957905 1.9876805957904935 17.402226865263493
24.745226865263497 24.6927731347365 21.813226865263495
30.0847731347365 2.894226865263498 22.5972268652635
19.9903194042095 12.385226865263498 30.0987731347365
5.035226865263503 26.776226865263503 6.533319404209504
15.7337731347365 17.6287731347365 29.7557731347365
18.8907731347365 13.3867731347365 1.1027731347365002
11.9587731347365 17.828226865263495 22.861773134736502
11.049773134736501 5.8172268652635 17.1197731347365
10.164226865263501 26.6463194042095 25.605773134736502
28.9633194042095 3.3762268652634972 3.3727731347364998
16.5517731347365 27.9187731347365 1.4316805957904961
29.8472268652635 26.055319404209502 11.543773134736501
27.608226865263497 9.6437731347365 25.2057731347365
8.6537731347365 15.440226865263504 10.395319404209499
22.4547731347365 19.9272268652635 20.7132268652635
14.225226865263501 9.4267731347365 28.6623194042095
27.640226865263493 19.075226865263495 22.5557731347365
0.4367731347364998 21.0047731347365 14.2787731347365
8.543226865263499 25.4302268652635 2.9192268652635036
13.779226865263503 11.455226865263505 31.3048656736825
31.730773134736502 29.4757731347365 31.0503194042095
9.056226865263504 3.0297731347365 29.8733194042095
5.809773134736501 28.2893194042095 21.792226865263494
5.970226865263498 3.5086805957904943 17.8363194042095
31.0462268652635 13.953226865263495 12.5727731347365
18.0942268652635 20.0007731347365 22.8837731347365
8.7667731347365 13.8902268652635 30.8297731347365
13.368226865263502 1.6556805957904999 8.181773134736499
12.412226865263499 16.950226865263495 23.2747731347365
5.9877731347365 13.4767731347365 3.833226865263498
3.3217731347364996 27.0342268652635 5.909773134736501
30.736773134736502 20.7157731347365 19.1257731347365
2.9302268652634993 8.373226865263497 27.5223194042095
16.4932268652635 17.495680595790503 28.0083194042095
22.0047731347365 19.129226865263497 0.8377731347364996
11.302680595790505 13.806226865263504 7.293773134736501
10.2717731347365 6.892680595790495 15.666226865263503
12.7167731347365 3.749680595790494 17.4783194042095
25.116226865263506 26.227773134736502 21.3292268652635
26.6217731347365 9.929226865263495 18.693226865263505
16.8442268652635 5.670226865263501 8.569680595790501
22.318226865263505 3.1652268652634987 31.4797731347365
5.5072268652634975 22.640226865263493 14.011226865263502
18.815226865263504 28.3327731347365 5.9167731347365
9.402134326317508 14.457680595790492 10.820134326317515
24.8887731347365 23.025226865263498 29.177773134736498
20.3247731347365 22.523226865263503 8.487226865263501
9.0257731347365 3.8137731347365005 14.6437731347365
30.360319404209502 26.925226865263504 8.091680595790493
20.8627731347365 22.062226865263504 15.6552268652635
11.520226865263503 20.7902268652635 23.7197731347365
8.9882268652635 0.08522686526350043 23.919226865263504
11.3737731347365 2.988226865263499 6.463773134736501
3.6992268652635047 31.611226865263497 21.560226865263495
19.298226865263494 13.270226865263503 28.2773194042095
20.016680595790504 27.1217731347365 21.8687731347365
21.855226865263496 31.491319404209502 27.785773134736502
26.3207731347365 15.0767731347365 18.7222268652635
15.7027731347365 25.2777731347365 8.622773134736502
13.020680595790495 2.6602268652635033 13.6587731347365
1.194226865263495 3.5152268652635 0.093226865263496
28.2117731347365 15.775226865263498 1.3132268652634949
21.851226865263506 9.5627731347365 2.6662268652635035
14.530773134736501 1.4816805957904933 20.9452268652635
26.2973194042095 12.278226865263498 9.974226865263496
26.5043194042095 23.235226865263506 2.914319404209504
5.317134326317515 6.489226865263497 28.9247731347365
31.0972268652635 15.546773134736501 16.121226865263502
4.851773134736501 28.4607731347365 22.0577731347365
21.1187731347365 9.679226865263495 15.6387731347365
15.331226865263496 16.096226865263496 6.004680595790504
2.056226865263504 31.8317731347365 11.115226865263502
23.422226865263504 27.9512268652635 6.7287731347365
17.9027731347365 17.375865673682497 16.657319404209503
28.861773134736502 25.3657731347365 7.564680595790506
7.760226865263498 14.6492268652635 0.09977313473650007
23.970226865263506 3.7537731347365 30.8947731347365
18.8397731347365 5.6432268652635 8.976226865263499
30.90468059579051 26.3593194042095 22.4557731347365
28.628773134736498 0.1543194042094953 3.0142268652635025
16.5306805957905 1.3536805957904932 0.7602268652634976
20.6097731347365 13.677319404209502 3.0882268652635005
6.671773134736501 4.496226865263502 25.2667731347365
4.260226865263498 10.9117731347365 19.6257731347365
22.730226865263496 12.453226865263495 6.463680595790493
21.177319404209502 21.042226865263494 14.492226865263497
16.9692268652635 23.1317731347365 1.1142268652634968
5.931773134736501 12.294226865263504 21.625226865263507
0.12931940420950383 23.667226865263494 30.8533194042095
16.257134326317512 13.863773134736501 10.294680595790496
17.3547731347365 5.6007731347364995 15.001226865263497
26.5347731347365 6.294680595790496 2.251773134736501
6.160226865263503 8.931226865263504 8.590226865263496
18.352773134736502 12.7663194042095 31.2837731347365
7.3027731347364995 0.9967731347365003 20.4452268652635
24.0822268652635 4.109680595790493 15.720226865263498
15.501680595790504 11.921680595790505 6.0702268652635
16.982226865263506 7.9732268652634986 18.9613194042095
22.3293194042095 9.708226865263498 12.6967731347365
17.476226865263506 6.059226865263504 14.5367731347365
6.491319404209502 1.0347731347365006 18.77968059579051
27.535773134736502 12.758226865263502 24.3947731347365
25.413773134736502 24.6157731347365 11.3737731347365
29.3793194042095 26.2707731347365 7.7642268652635025
9.8022268652635 10.9157731347365 2.397226865263498
13.294226865263504 26.3003194042095 24.074226865263505
20.686319404209502 26.449226865263505 23.3127731347365
6.738773134736499 29.346226865263496 13.4077731347365
10.9937731347365 22.0363194042095 24.7072268652635
22.346680595790502 19.2402268652635 25.036226865263494
1.0902268652634959 26.8577731347365 3.6382268652634977
29.711226865263505 1.1756805957904959 21.9507731347365
18.5377731347365 13.568226865263505 5.750680595790499
16.5827731347365 14.110226865263499 24.5187731347365
28.860319404209502 3.8182268652635045 21.8443194042095
20.3193194042095 9.9397731347365 14.921226865263499
5.333226865263498 3.3722268652634995 14.0037731347365
2.8842268652635 13.096226865263496 18.229226865263506
7.341319404209504 32.077226865263505 10.315226865263504
22.1487731347365 9.014226865263502 13.801319404209497
24.8743194042095 25.2567731347365 22.5877731347365
4.7577731347364995 16.580226865263505 20.8047731347365
27.4632268652635 29.580226865263505 12.187226865263504
15.3932268652635 22.9677731347365 9.9422268652635
7.976680595790498 13.374226865263502 16.542226865263494
26.6843194042095 9.607226865263499 2.314680595790506
12.959226865263496 3.1647731347364996 27.297773134736502
20.3203194042095 8.8902268652635 5.3937731347365006
29.312773134736503 18.346680595790502 8.3827731347365
11.101680595790498 11.544226865263504 4.228226865263501
29.933773134736498 15.1777731347365 6.8107731347365
20.718226865263496 22.430319404209502 9.5857731347365
14.668773134736501 28.378226865263507 10.1162268652635
20.1827731347365 7.9166805957904955 31.8857731347365
16.0217731347365 30.5737731347365 15.056226865263504
27.649226865263493 4.8467731347365 8.1997731347365
16.4667731347365 16.910773134736502 10.206226865263496
28.6113194042095 4.4802268652634964 7.967319404209501
25.4127731347365 7.4367731347365 19.4383194042095
10.406226865263498 30.1097731347365 4.183319404209502
13.6047731347365 30.4452268652635 14.810680595790501
3.7042268652635 0.9323194042094975 0.954134326317515
6.0072268652634975 9.983226865263497 25.758226865263502
30.7312268652635 19.8393194042095 28.2757731347365
24.0467731347365 3.5152268652635 4.8117731347365
9.7517731347365 4.482680595790498 15.7617731347365
9.6297731347365 8.6947731347365 12.7957731347365
31.1652268652635 13.1657731347365 11.583226865263498
9.2057731347365 2.2232268652634986 0.3422268652634983
30.2563194042095 15.9577731347365 6.862319404209504
18.3637731347365 2.6186805957904937 17.2042268652635
26.988773134736498 17.881773134736502 29.2147731347365
20.8347731347365 11.975680595790493 19.9637731347365
10.3237731347365 13.458226865263498 25.330226865263505
4.3842268652635 20.786226865263494 24.6467731347365
20.13968059579051 1.4256805957904959 16.3797731347365
19.5067731347365 25.1152268652635 10.778680595790505
7.056773134736501 27.9757731347365 23.4547731347365
6.060226865263495 28.224226865263496 21.3682268652635
16.070773134736502 15.8997731347365 29.8933194042095
2.9654119431555017 15.234226865263501 14.468226865263496
4.497680595790499 13.3587731347365 6.4617731347365
31.1913194042095 23.3897731347365 0.3686805957904937
20.016226865263498 9.493680595790494 9.3757731347365
11.3647731347365 21.5657731347365 11.747773134736502
22.8807731347365 25.4272268652635 6.8142268652635
8.705680595790497 5.255226865263502 14.303226865263504
15.7207731347365 18.4827731347365 29.3917731347365
25.596226865263496 23.2157731347365 2.380226865263502
5.7106805957904925 17.3077731347365 20.9577731347365
26.1873194042095 11.1832268652635 17.6097731347365
22.979226865263506 20.8167731347365 1.8782268652634997
2.2802268652635007 3.0752268652634953 6.7562268652635
21.067134326317515 8.5187731347365 5.736680595790503
22.5907731347365 19.7932268652635 25.4092268652635
1.8326805957904924 26.583226865263505 7.1197731347365
12.5887731347365 22.495226865263497 29.221226865263496
3.3236805957905062 15.799773134736501 15.5332268652635
21.4727731347365 27.6943194042095 13.416680595790496
25.377226865263502 18.5582268652635 4.053773134736501
8.1157731347365 19.691226865263495 7.788226865263503
3.621226865263502 10.8747731347365 5.3747731347365
4.228226865263501 17.4187731347365 20.6047731347365
2.260680595790504 23.2047731347365 24.6297731347365
1.607773134736501 2.884680595790499 7.323680595790506
22.3652268652635 24.5413194042095 6.502226865263502
13.953773134736501 0.9402268652635044 24.520226865263503
18.652226865263493 23.5517731347365 25.176226865263494
12.664226865263501 21.8957731347365 24.6567731347365
13.446226865263505 14.6507731347365 17.169226865263504
24.854226865263506 29.9937731347365 21.751226865263497
4.008226865263502 11.8382268652635 10.208226865263498
9.4457731347365 16.795226865263494 0.5037731347365
9.801226865263494 21.1987731347365 10.7257731347365
25.5177731347365 20.982226865263506 17.7343194042095
4.993226865263502 2.0197731347365 16.9062268652635
2.124226865263502 28.5837731347365 16.491226865263506
14.6997731347365 22.787680595790505 8.3457731347365
16.9977731347365 3.495226865263497 16.1527731347365
3.8177731347365 11.919226865263504 11.147680595790504
15.270773134736501 27.520226865263503 18.541773134736502
25.334319404209502 5.283773134736501 14.862319404209504
31.3453194042095 3.205680595790497 17.3077731347365
5.5882268652635005 1.458226865263498 27.495226865263497
16.9287731347365 6.587226865263496 20.283226865263494
13.113773134736501 31.584226865263496 14.0017731347365
17.4157731347365 15.3557731347365 24.179226865263495
18.3657731347365 0.21177313473650017 12.357680595790498
24.065226865263504 29.7327731347365 1.4332268652634994
1.3617731347365005 25.623773134736503 27.096319404209503
19.2697731347365 5.936680595790506 13.5077731347365
31.1597731347365 21.991226865263506 16.90468059579051
24.4847731347365 24.4423194042095 12.0212268652635
12.453226865263495 12.426226865263494 23.525226865263498
