19.2997731347365 31.0157731347365 26.236773134736502
29.0833194042095 27.1297731347365 15.017226865263503
20.1517731347365 25.8543194042095 13.034226865263498
18.6357731347365 6.894680595790504 17.820773134736502
5.202226865263505 2.276226865263503 31.9767731347365
18.3777731347365 14.3797731347365 6.4406805957904965
9.2807731347365 25.2303194042095 32.1607731347365
6.406226865263498 9.752226865263502 0.8632268652634991
2.1617731347364995 30.336226865263505 20.142226865263503
17.3437731347365 13.293226865263499 12.321226865263505
28.2027731347365 24.8077731347365 5.2836805957905
16.6767731347365 24.696226865263505 5.5982268652634986
5.2757731347365 9.978680595790493 11.0302268652635
30.3873194042095 7.493680595790494 5.920226865263501
19.255226865263502 4.6697731347365 10.5612268652635
0.09722686526350088 16.7416805957905 4.803226865263504
0.2516805957905035 31.302773134736498 24.855773134736502
8.644226865263498 17.7257731347365 29.8286805957905
18.1377731347365 17.4212268652635 24.5522268652635
5.876773134736501 11.703319404209498 25.7817731347365
19.6217731347365 17.017226865263503 25.3217731347365
19.1017731347365 3.293773134736501 10.3527731347365
2.3237731347365003 1.819226865263495 25.280226865263494
4.813226865263495 10.3767731347365 20.551226865263494
16.938226865263495 5.3987731347365 26.581680595790502
19.8857731347365 18.497226865263507 29.4537731347365
18.7207731347365 28.6793194042095 21.3977731347365
16.8127731347365 31.496865673682507 4.7287731347365
21.047226865263504 24.273226865263503 26.7253194042095
21.5437731347365 19.720226865263506 9.971226865263496
5.912226865263499 0.8356805957904925 10.203773134736501
30.968319404209502 0.6932268652635045 28.8357731347365
8.830226865263505 2.3887731347364998 31.5683194042095
20.3327731347365 16.2992268652635 16.913773134736502
13.2467731347365 23.520226865263503 13.2717731347365
22.8563194042095 3.5957731347365005 1.9592268652634957
18.6533194042095 17.5217731347365 8.3177731347365
3.1052268652634964 2.5077731347364995 25.7493194042095
4.4977731347365 9.361226865263497 10.617773134736499
22.8317731347365 22.866226865263506 28.8472268652635
21.552319404209502 1.8336805957904971 27.4302268652635
18.010226865263498 3.9056805957905 0.7017731347365004
0.6602268652635033 25.1217731347365 16.759226865263493
14.7147731347365 17.5747731347365 4.9476805957905015
15.764226865263502 12.0767731347365 3.4302268652634993
1.3896805957904945 18.6367731347365 23.151226865263503
16.4047731347365 7.552680595790505 21.5312268652635
3.4832268652634966 6.3892268652635025 23.973226865263506
31.0107731347365 24.4103194042095 5.5792268652635
28.8267731347365 6.604226865263499 12.865226865263502
26.489773134736502 13.6257731347365 12.8067731347365
13.6922268652635 4.944773134736501 30.2677731347365
13.2527731347365 8.3797731347365 17.175226865263504
29.477773134736502 8.363773134736501 6.0767731347365
18.6507731347365 13.6952268652635 26.9187731347365
17.3087731347365 12.6097731347365 4.2147731347365
26.9087731347365 23.9813194042095 5.205680595790497
14.084226865263496 4.5216805957904995 15.3183194042095
6.491226865263499 6.0563194042095 27.741319404209502
7.433226865263499 21.4343194042095 5.400680595790504
27.6293194042095 8.935226865263495 20.2047731347365
14.9947731347365 11.645680595790495 3.721226865263496
7.3622268652635015 1.7236805957904977 6.7957731347365
24.9327731347365 25.9423194042095 9.922680595790496
16.3567731347365 10.928226865263504 16.2367731347365
17.9932268652635 20.3077731347365 15.578680595790502
16.095226865263506 21.9587731347365 24.160226865263503
6.6342268652635 28.364773134736502 0.05277313473650125
16.410226865263503 31.375226865263507 21.689773134736498
0.6356805957905038 9.734680595790493 1.0577731347365003
10.3902268652635 28.266226865263498 27.3352268652635
24.9477731347365 21.875773134736498 18.911226865263494
11.671134326317514 16.818680595790497 3.890134326317508
15.2567731347365 3.6332268652635022 10.0717731347365
9.769226865263498 10.7192268652635 12.581680595790502
25.199226865263505 5.9337731347365 23.524226865263493
3.3953194042094985 31.3947731347365 13.881680595790499
13.4607731347365 27.9737731347365 1.1632268652635034
4.715319404209499 7.1647731347365 7.9432268652635045
26.1437731347365 7.601773134736501 29.1717731347365
11.0732268652635 25.4467731347365 3.6597731347365006
10.1337731347365 20.023226865263503 0.9842268652635013
29.690773134736503 27.6327731347365 7.908773134736501
8.029226865263503 20.5137731347365 16.25268059579051
5.163226865263503 4.953773134736501 11.469680595790493
23.4907731347365 9.981226865263501 30.5462268652635
13.1567731347365 4.025680595790504 3.588773134736501
9.619319404209502 14.112226865263501 21.638865673682503
16.8322268652635 9.686773134736502 14.310680595790501
4.344226865263501 21.3857731347365 27.8297731347365
23.8107731347365 21.5827731347365 20.2457731347365
15.2957731347365 11.9177731347365 16.109680595790508
12.3082268652635 13.2787731347365 11.867226865263497
11.5092268652635 25.535226865263503 21.355773134736502
23.3237731347365 21.2932268652635 24.738134326317507
4.284680595790505 24.2157731347365 4.2592268652635
0.46868059579050225 30.1122268652635 0.3626805957904935
11.5257731347365 30.6567731347365 3.6457731347364994
10.468226865263496 26.2543194042095 5.2117731347365
7.3142268652635 26.061773134736498 20.5597731347365
0.6847731347365009 21.086226865263505 8.267773134736501
13.070319404209503 18.3447731347365 19.2727731347365
3.550226865263504 10.661226865263501 10.0277731347365
12.1132268652635 20.3607731347365 1.084680595790502
11.126226865263497 25.2437731347365 21.355773134736502
24.9353194042095 11.368226865263502 6.0837731347365
17.0117731347365 0.3292268652635002 13.2827731347365
20.2257731347365 23.000773134736498 25.3277731347365
3.7687731347365006 24.087226865263496 32.087226865263496
27.4902268652635 31.449226865263505 19.309226865263504
17.908226865263494 27.2527731347365 19.022226865263498
11.790680595790505 30.6367731347365 5.629226865263497
26.430773134736498 31.9263194042095 14.371319404209498
32.0887731347365 18.52068059579051 10.0852268652635
9.456226865263496 5.288226865263503 10.081226865263496
4.505773134736501 7.562226865263504 8.636680595790494
12.544226865263504 23.324680595790497 9.867773134736499
1.7306805957905027 31.9212268652635 4.706773134736501
19.566226865263495 16.320773134736502 17.196226865263505
18.6017731347365 28.4247731347365 4.7867731347364995
14.294226865263504 19.007226865263497 15.2817731347365
15.5427731347365 23.4512268652635 24.4647731347365
30.1002268652635 13.7532268652635 18.376226865263497
15.9767731347365 17.639226865263502 7.374226865263502
18.956319404209502 19.253319404209503 20.7037731347365
5.9307731347365 16.1287731347365 18.5327731347365
1.0272268652635006 29.114773134736502 0.5586805957905057
17.090319404209502 25.3292268652635 6.083226865263498
25.113773134736498 3.908226865263501 24.4863194042095
20.1847731347365 1.0922268652634983 0.5482268652635014
28.167226865263494 19.5797731347365 7.341226865263501
4.4037731347365 27.0267731347365 21.816226865263495
1.3657731347365 6.770773134736499 15.6873194042095
24.5972268652635 29.1503194042095 9.941319404209498
31.1493194042095 20.9763194042095 25.770226865263503
2.4665880568445004 7.2062268652634955 22.876680595790504
6.680226865263499 26.5967731347365 24.430773134736498
9.709773134736501 21.7162268652635 28.488226865263506
28.2117731347365 9.541226865263503 16.2777731347365
30.5603194042095 5.0767731347365 23.2677731347365
6.107773134736501 14.9577731347365 3.5926805957904975
5.427226865263499 11.561680595790506 21.2073194042095
18.708226865263505 13.3237731347365 4.9817731347365
12.895319404209499 17.0687731347365 10.569226865263495
20.3107731347365 3.3267731347365004 8.8717731347365
1.684773134736501 5.3782268652635 19.817773134736502
15.976226865263506 14.1167731347365 25.937226865263504
21.4062268652635 32.0243194042095 18.5713194042095
2.117680595790503 32.0187731347365 4.035680595790495
11.140319404209503 23.181226865263504 10.325773134736501
1.7672268652635026 14.7517731347365 25.5867731347365
8.703226865263495 3.0132268652634977 22.0282268652635
10.8112268652635 31.8682268652635 5.1322268652634975
6.489226865263497 20.157319404209503 7.6122268652635015
29.8747731347365 24.1947731347365 9.7757731347365
27.253773134736498 1.4977731347364998 25.0702268652635
26.720226865263506 22.930319404209502 26.212319404209502
5.103226865263501 10.5092268652635 25.0467731347365
15.346865673682501 21.4527731347365 0.5992268652634962
6.1922268652635 16.9237731347365 25.2143194042095
11.0762268652635 13.9127731347365 12.8817731347365
18.366226865263506 12.643319404209503 21.1922268652635
19.208226865263505 15.4687731347365 18.102773134736502
29.0917731347365 15.200773134736501 12.510226865263498
16.5027731347365 23.2617731347365 1.5847731347364995
18.790865673682504 6.9227731347365005 7.071226865263505
9.3237731347365 28.8733194042095 27.1603194042095
1.516680595790504 5.471680595790502 29.177773134736498
25.8897731347365 29.266226865263498 14.507226865263497
26.4033194042095 7.7957731347365 13.2053194042095
31.2633194042095 7.1806805957905055 23.0522268652635
9.2162268652635 7.860773134736501 15.353226865263501
21.7967731347365 20.477773134736502 15.727226865263496
25.001226865263497 4.607226865263499 24.7407731347365
6.9557731347365 27.251226865263497 16.163226865263503
2.2472268652634995 24.614773134736502 31.876773134736503
25.6553194042095 0.6092268652635013 6.8987731347365
7.1222268652634995 31.0787731347365 2.2916805957904955
15.376226865263497 16.1357731347365 1.2806805957904999
23.235226865263506 14.016226865263498 24.264226865263502
24.5697731347365 7.948680595790506 21.1977731347365
4.4557731347365 12.1627731347365 26.887226865263493
10.5707731347365 28.9782268652635 22.9307731347365
11.420226865263501 26.2827731347365 6.0527731347364995
20.752226865263502 9.3872268652635 2.793226865263499
21.7697731347365 28.7377731347365 4.441226865263495
10.744773134736501 23.2072268652635 27.986226865263497
3.1757731347365006 18.3657731347365 12.4052268652635
16.5027731347365 21.7273194042095 28.9266805957905
11.235226865263499 23.9482268652635 17.3717731347365
9.590773134736502 7.880773134736501 8.049773134736501
4.485226865263499 3.6666805957904955 1.6556805957904999
14.7652268652635 9.4362268652635 11.197226865263495
27.133226865263502 22.238226865263506 24.7023194042095
7.9923194042095 13.1597731347365 8.483226865263497
11.8827731347365 18.3867731347365 15.4137731347365
18.6182268652635 31.0277731347365 9.607680595790498
10.773773134736501 23.8107731347365 27.619773134736498
24.2797731347365 21.7807731347365 4.015319404209503
15.603226865263501 8.988319404209502 15.482773134736501
14.767680595790495 26.141226865263498 1.3987731347364996
2.043680595790505 20.9842268652635 17.335680595790507
19.4517731347365 12.188680595790501 28.125319404209502
28.242773134736503 5.216226865263501 5.886226865263502
15.859226865263501 9.696226865263505 26.4127731347365
29.913773134736502 32.128773134736505 10.667226865263501
31.608773134736502 14.4447731347365 18.398226865263503
29.8957731347365 14.7177731347365 5.407680595790495
30.0067731347365 20.665680595790505 2.9476805957905015
12.4497731347365 3.9192268652635036 3.4657731347364997
25.7713194042095 5.950680595790502 2.7293194042095017
17.797226865263504 28.224773134736502 15.077226865263505
15.531226865263498 30.011226865263502 14.3407731347365
29.167226865263494 12.7847731347365 31.785773134736502
28.0797731347365 18.1263194042095 22.229226865263506
0.3217731347364996 13.937226865263504 18.3767731347365
19.5217731347365 6.636680595790494 29.7513194042095
30.5157731347365 24.314773134736498 3.069226865263495
21.5227731347365 27.8847731347365 4.460773134736501
13.572226865263495 12.684226865263504 11.650226865263498
22.328319404209502 0.40177313473649967 5.3857731347365
24.286226865263494 20.562226865263504 16.8457731347365
25.4812268652635 21.8427731347365 24.983773134736502
22.5617731347365 6.169226865263504 16.261226865263502
24.6123194042095 19.6887731347365 16.4302268652635
5.5957731347365005 6.226680595790498 22.0516805957905
24.613226865263506 29.2097731347365 27.892226865263503
17.6587731347365 1.0992268652634962 12.9052268652635
3.944226865263495 13.156226865263498 14.0697731347365
26.5877731347365 20.6527731347365 16.066226865263495
16.535226865263503 5.1617731347364995 26.239226865263497
4.8782268652635 28.0937731347365 24.5603194042095
31.2107731347365 11.0762268652635 13.7797731347365
1.8312268652634955 7.7377731347365 24.4907731347365
22.121226865263502 1.0212268652635004 5.716773134736501
10.5507731347365 26.503773134736498 26.2133194042095
19.422773134736502 12.685226865263495 5.477226865263496
25.748773134736503 4.2207731347365005 24.1952268652635
17.8337731347365 10.5997731347365 31.863773134736498
0.13222686526349747 7.847680595790493 23.179226865263495
12.9317731347365 28.0027731347365 14.482226865263499
32.1397731347365 13.440680595790496 14.111226865263497
15.489226865263497 17.465226865263496 6.056226865263504
25.096226865263496 6.6282268652635 23.3137731347365
19.5147731347365 5.097773134736499 11.6097731347365
0.2597731347365002 13.671226865263499 32.030226865263494
19.1427731347365 3.0417731347365002 22.135226865263498
15.739680595790503 27.2883194042095 24.060226865263495
11.7377731347365 16.867226865263497 9.733680595790503
27.9607731347365 10.842319404209501 16.590226865263496
29.8683194042095 3.8197731347365007 20.6227731347365
15.794226865263504 30.3947731347365 3.850226865263501
3.001773134736501 15.608226865263497 28.0672268652635
13.668680595790505 23.4207731347365 8.498680595790503
21.724226865263496 18.178226865263504 20.722865673682506
1.2286805957904932 30.5317731347365 19.769226865263498
28.702226865263505 3.3907731347365004 18.5457731347365
5.6906805957904965 21.9877731347365 26.253226865263507
28.775226865263498 32.1627731347365 23.0737731347365
5.3262268652635 20.547773134736502 1.3072268652634946
21.269226865263498 24.8347731347365 27.416226865263503
7.246680595790494 30.6937731347365 20.1817731347365
15.462226865263496 13.769226865263498 26.6053194042095
26.4207731347365 13.788680595790495 21.1717731347365
6.3057731347365 10.290226865263499 4.306226865263504
27.6093194042095 27.4627731347365 11.803226865263504
0.9515880568444857 29.001773134736503 10.733226865263497
27.9737731347365 5.4817731347365 19.455226865263505
24.873773134736503 7.2873194042095015 28.2827731347365
18.2402268652635 28.5757731347365 21.2927731347365
4.5152268652635 6.4026805957905 24.2217731347365
12.2207731347365 12.889226865263502 25.7102268652635
20.1947731347365 2.501773134736501 0.8002268652635038
26.706319404209502 18.336226865263505 8.8297731347365
28.878773134736498 7.532226865263503 6.718226865263496
29.145319404209502 27.4817731347365 12.9542268652635
18.355226865263496 26.967226865263505 14.652773134736501
15.6187731347365 13.5396805957905 31.5407731347365
23.7017731347365 16.4907731347365 14.179226865263495
21.1167731347365 27.9267731347365 0.850680595790493
22.1847731347365 24.553773134736502 7.1462268652635
30.2402268652635 26.547773134736502 19.453226865263495
28.3323194042095 12.4157731347365 17.0217731347365
1.8452268652634984 27.4027731347365 26.9707731347365
10.760226865263498 18.294680595790496 25.360319404209502
22.8457731347365 26.552773134736498 5.616680595790498
9.5377731347365 13.8147731347365 31.9577731347365
20.2927731347365 8.050226865263504 13.2307731347365
28.779226865263503 19.885226865263498 3.046680595790505
29.2737731347365 28.1827731347365 24.4182268652635
22.9037731347365 12.501226865263497 8.8076805957905
11.632226865263497 26.5887731347365 21.468319404209502
29.1013194042095 9.481319404209504 3.778319404209501
23.914226865263494 3.2577731347364995 11.899319404209503
23.553773134736502 21.7347731347365 24.673226865263494
28.5067731347365 31.203226865263495 32.1677731347365
24.1892268652635 25.495226865263497 10.607773134736501
27.0027731347365 15.8747731347365 4.124226865263502
3.1832268652634994 31.7808656736825 14.628680595790499
32.0252268652635 31.9967731347365 5.586226865263498
11.363680595790498 11.334773134736501 2.634680595790499
4.190226865263504 11.3322268652635 24.253319404209503
5.9597731347364995 22.6832268652635 25.429226865263495
12.123865673682502 28.7967731347365 15.6337731347365
5.0882268652635005 4.674773134736501 0.8867731347365009
9.014773134736501 15.469773134736501 4.005773134736501
14.093226865263496 27.5163194042095 25.2297731347365
27.8577731347365 9.7973194042095 20.208226865263505
19.912680595790505 30.0883194042095 8.904226865263503
15.197226865263495 30.557226865263495 25.1677731347365
24.8207731347365 27.1152268652635 1.0376805957905049
5.3356805957904925 20.307226865263495 16.012226865263493
20.274226865263493 13.145773134736501 22.4637731347365
6.5702268652635 29.450319404209502 30.986773134736502
26.507226865263497 5.277773134736501 18.818226865263505
25.3347731347365 17.176226865263494 2.3662268652634992
12.1737731347365 17.53268059579051 29.105773134736502
27.9543194042095 13.334226865263496 12.337226865263496
0.100226865263501 25.052773134736498 31.8987731347365
10.9867731347365 0.5542268652634945 5.786226865263501
29.2893194042095 11.635680595790504 29.0687731347365
20.1817731347365 2.9967731347365003 13.7947731347365
23.7613194042095 9.737319404209504 5.9907731347365
5.425680595790496 1.5772268652635049 24.9537731347365
3.9897731347365006 6.6667731347365 23.700319404209502
26.1977731347365 0.8347731347364995 19.4242268652635
23.9377731347365 21.7157731347365 7.2057731347365
6.300226865263504 21.2077731347365 26.934226865263504
31.977226865263496 23.651226865263503 6.434680595790496
4.256680595790499 3.4963194042094976 0.7677731347365011
3.7872268652634986 7.793680595790505 24.822226865263495
0.7622268652635 26.5257731347365 26.681773134736503
31.114773134736502 0.9392268652634996 17.0612268652635
29.4017731347365 23.6883194042095 8.626226865263497
27.0947731347365 20.428226865263504 9.871226865263502
17.304226865263495 27.616773134736498 9.790680595790505
28.8927731347365 30.4677731347365 26.6037731347365
11.407680595790495 26.465226865263496 11.9692268652635
25.330226865263505 18.1207731347365 31.3173194042095
26.3747731347365 23.2847731347365 13.828680595790502
12.9197731347365 28.3927731347365 13.2072268652635
10.359319404209504 16.069226865263495 9.0487731347365
15.148226865263503 14.098680595790498 25.5743194042095
29.259226865263493 16.5792268652635 13.9367731347365
2.7786805957905045 30.1577731347365 21.5383194042095
26.8823194042095 23.7557731347365 14.554226865263495
7.368680595790494 26.9797731347365 20.7853194042095
18.967226865263505 6.601773134736501 10.9512268652635
1.7662268652634978 10.973226865263499 28.5877731347365
10.567680595790506 23.949226865263505 23.346226865263496
8.742680595790503 24.800680595790496 11.868680595790494
19.5917731347365 13.8797731347365 11.9607731347365
22.7827731347365 1.0732268652635 24.189773134736498
17.4237731347365 5.424773134736501 28.029319404209502
13.060226865263495 14.607773134736501 11.141226865263498
13.871226865263502 13.002226865263502 7.6097731347365
17.3157731347365 2.205680595790497 2.5937731347365
0.8817731347365001 8.0707731347365 10.0797731347365
2.8057731347364996 11.708226865263498 10.9617731347365
16.1647731347365 9.889226865263502 20.900226865263498
14.361226865263497 32.0543194042095 8.815226865263504
20.7657731347365 30.2193194042095 9.6287731347365
2.857226865263499 27.831226865263496 17.343226865263496
16.8227731347365 29.6747731347365 13.6496805957905
0.3936805957904994 22.8562268652635 26.3726805957905
30.421319404209502 8.8662268652635 24.380226865263502
23.9727731347365 24.288773134736502 12.831226865263496
9.956319404209498 5.859226865263501 1.417134326317509
13.489226865263497 6.446680595790497 30.044226865263504
19.2342268652635 26.0857731347365 26.8287731347365
2.512680595790499 7.759680595790499 24.1307731347365
25.478680595790507 23.647865673682503 19.043680595790505
25.988773134736498 7.0412268652635035 26.517226865263503
24.5427731347365 10.5457731347365 6.8172268652635
6.0677731347365 8.078226865263495 13.2847731347365
31.187226865263504 24.244226865263506 4.523226865263503
27.5773194042095 7.809226865263504 19.8457731347365
3.286226865263501 2.5316805957905046 0.14631940420949974
9.4347731347365 17.525226865263498 25.0593194042095
21.9437731347365 17.53268059579051 4.841773134736501
23.9187731347365 16.1802268652635 31.934226865263504
2.2162268652635007 6.1662268652635035 29.931773134736503
30.794773134736502 26.796319404209502 18.455226865263505
9.589226865263498 14.7497731347365 26.663773134736502
4.510226865263498 2.075773134736501 30.433773134736498
19.2507731347365 21.1952268652635 5.486226865263497
9.807226865263495 20.5653194042095 11.6667731347365
26.0317731347365 7.7842268652634985 30.7717731347365
16.3292268652635 6.418773134736501 26.619773134736498
29.4433194042095 10.329680595790492 28.8337731347365
19.571226865263505 14.542226865263501 28.1922268652635
21.9647731347365 9.1037731347365 13.612680595790493
10.211319404209501 4.553226865263504 26.6017731347365
11.355226865263496 12.2087731347365 5.5517731347365
20.3737731347365 19.9457731347365 19.8147731347365
18.779226865263503 21.0433194042095 6.114226865263497
5.340680595790502 20.9357731347365 1.8822268652634975
7.829680595790492 20.6633194042095 5.8042268652634945
25.9717731347365 26.815226865263504 1.6367731347365009
5.5122268652635 11.547226865263504 28.4157731347365
8.7907731347365 28.9467731347365 29.8773194042095
21.8087731347365 1.1137731347364994 24.440226865263504
12.773773134736501 9.223319404209501 29.1297731347365
30.2023194042095 4.4277731347364995 20.0603194042095
4.473773134736501 17.4452268652635 19.684226865263504
12.383319404209498 17.149226865263493 2.748773134736501
6.338773134736501 10.482319404209502 2.033226865263501
11.622680595790499 29.989226865263497 28.3717731347365
14.2397731347365 20.9587731347365 6.2642268652635025
24.5797731347365 28.8177731347365 17.331226865263496
24.3887731347365 3.8722268652634995 12.816680595790501
11.7187731347365 22.0177731347365 9.7507731347365
12.2697731347365 3.059226865263504 16.812226865263504
4.776226865263503 19.023319404209502 20.5197731347365
1.2772268652635006 32.0292268652635 25.7807731347365
7.123773134736501 8.5277731347365 15.5537731347365
5.9367731347365 24.6067731347365 21.280226865263494
25.2497731347365 28.908226865263494 16.809226865263504
20.9207731347365 11.977226865263496 19.9287731347365
13.3397731347365 9.680773134736501 2.2242268652634962
23.2222268652635 29.9353194042095 18.0847731347365
11.493226865263502 17.080226865263505 15.877226865263502
6.970680595790498 3.6536805957905045 6.673319404209504
24.882680595790504 9.1627731347365 4.458319404209501
11.5747731347365 13.365226865263502 24.9617731347365
14.1887731347365 27.5762268652635 24.0907731347365
16.7797731347365 16.4083194042095 19.327226865263505
14.910226865263503 13.596226865263496 25.2937731347365
2.343226865263496 12.895226865263503 10.322226865263495
28.4933194042095 31.1337731347365 20.8707731347365
27.052773134736498 19.105226865263496 8.322226865263495
1.3492268652634962 16.7523194042095 5.519226865263498
7.796680595790505 16.392226865263503 31.2437731347365
19.571226865263505 23.6497731347365 1.4727731347364994
4.8027731347364995 2.7302268652634964 24.7803194042095
14.3052268652635 24.5702268652635 17.173226865263494
5.5687731347364995 11.2717731347365 29.125226865263507
8.520226865263503 31.360319404209502 13.9302268652635
14.059226865263504 12.8177731347365 31.4017731347365
11.164226865263501 27.135226865263498 7.9297731347365
2.086226865263498 12.746680595790494 10.776773134736501
20.3717731347365 19.9037731347365 20.882226865263497
20.2342268652635 1.9047731347364998 21.9302268652635
12.492226865263497 15.502226865263502 11.365226865263502
27.876680595790504 1.529680595790495 24.169773134736502
11.229134326317507 12.1432268652635 13.2467731347365
12.8037731347365 0.5772268652635049 7.3977731347365
19.1807731347365 5.8727731347365 17.272226865263498
4.321680595790497 15.3692268652635 0.9722268652635009
1.7537731347365 13.496226865263502 24.366773134736498
19.2837731347365 28.4647731347365 26.7077731347365
1.8717731347365003 28.009226865263493 11.287226865263499
18.973226865263506 2.8697731347364996 1.7332268652634966
14.604226865263499 10.172680595790496 21.354226865263506
2.963773134736501 2.178680595790496 0.6602268652635033
26.0967731347365 21.761226865263502 0.914226865263501
10.903319404209501 16.375226865263507 9.1767731347365
1.8122268652635043 24.3103194042095 31.389226865263502
31.547226865263504 17.021226865263493 10.0517731347365
28.1377731347365 22.3172268652635 28.3377731347365
25.572226865263495 24.9767731347365 14.674226865263499
23.7457731347365 28.096226865263496 4.731319404209504
3.3217731347364996 5.3827731347364995 10.273773134736501
25.440773134736503 0.9677731347365004 16.897680595790504
13.1252268652635 5.857226865263499 24.8877731347365
28.4667731347365 29.6333194042095 24.128773134736498
31.4323194042095 14.357226865263499 18.9827731347365
25.7197731347365 19.675680595790496 16.640226865263493
4.484226865263501 13.9807731347365 7.043773134736501
28.749865673682507 26.2727731347365 14.4457731347365
13.7757731347365 17.3412268652635 28.652226865263493
25.8337731347365 25.898226865263503 23.349773134736502
24.2872268652635 27.7227731347365 10.318226865263505
24.3167731347365 21.419773134736502 19.4147731347365
26.9182268652635 19.4447731347365 12.112680595790493
23.7257731347365 11.1907731347365 5.4732268652634986
17.822226865263495 27.437773134736503 14.542226865263501
25.620865673682502 4.9277731347364995 7.090319404209499
6.084226865263496 23.9433194042095 31.253773134736498
17.9757731347365 31.9497731347365 8.998226865263497
28.4627731347365 7.630226865263502 5.5342268652634985
29.574226865263505 14.7287731347365 1.3402268652634959
18.7932268652635 31.4893194042095 18.8677731347365
27.6367731347365 22.5657731347365 26.8507731347365
11.2577731347365 0.10977313473649986 6.4937731347365
31.273226865263503 4.6187731347365 23.892226865263503
7.971226865263496 30.7873194042095 8.4647731347365
28.8977731347365 30.3627731347365 25.476226865263506
10.484680595790493 7.618226865263502 7.9572268652635
28.2077731347365 23.4332268652635 9.266680595790504
2.671226865263499 0.7862268652635009 25.6977731347365
24.1152268652635 2.6807731347364996 14.153226865263498
2.2227731347364994 23.924319404209502 31.6017731347365
8.3557731347365 27.9127731347365 15.230226865263496
7.8752268652635 3.9912268652634992 16.1257731347365
12.9097731347365 28.121226865263502 20.564773134736498
14.3812268652635 23.8067731347365 24.122226865263507
30.9117731347365 12.5767731347365 8.3597731347365
23.9983194042095 27.780226865263494 9.580680595790497
2.0172268652635026 27.342134326317506 16.03568059579051
29.537865673682504 4.2573194042095 13.580226865263505
21.363226865263506 1.8017731347365 21.2467731347365
29.276319404209502 12.0047731347365 27.9773194042095
5.5702268652635 24.7817731347365 30.5503194042095
25.538226865263503 11.5737731347365 20.208226865263505
14.985773134736501 23.4803194042095 28.649226865263493
6.237134326317516 10.049226865263499 29.671680595790505
17.602226865263496 14.401680595790495 23.8297731347365
30.7253194042095 13.8207731347365 21.9722268652635
32.010773134736496 23.8873194042095 27.105226865263496
3.825773134736501 20.187226865263504 2.6452268652635027
1.2587731347365008 4.81013432631751 5.366226865263499
5.472773134736499 19.9657731347365 0.5722268652634952
5.431680595790496 4.5002268652635 19.255226865263502
31.205226865263505 1.0312268652634984 2.188226865263495
3.08086567368251 29.9123194042095 1.5567731347365008
11.623226865263497 31.0237731347365 4.334226865263496
29.491773134736498 2.556226865263504 0.07868059579050168
26.1772268652635 3.908226865263501 7.289226865263501
10.143319404209503 15.3157731347365 2.908773134736501
0.610226865263499 28.195680595790506 15.8907731347365
14.667226865263501 3.238226865263499 10.123226865263497
29.439865673682505 12.1432268652635 27.5797731347365
13.736226865263497 21.171319404209502 20.020226865263503
14.3547731347365 13.3177731347365 30.626773134736503
11.9272268652635 29.6537731347365 12.004680595790504
0.6736805957905005 11.8232268652635 30.2342268652635
1.1047731347365009 13.7567731347365 5.030773134736501
4.079680595790492 1.6826805957905009 31.5547731347365
1.901226865263503 0.08522686526350043 5.4627731347365
21.4057731347365 28.6122268652635 6.156226865263498
11.3847731347365 3.945680595790506 10.7107731347365
13.004226865263497 31.4127731347365 9.174226865263499
0.22477313473650007 20.9537731347365 26.108773134736502
5.4587731347365 15.5217731347365 24.116773134736498
4.5643194042095026 7.849226865263496 7.644226865263498
24.611226865263497 28.857226865263506 26.124226865263502
19.7072268652635 31.747773134736498 19.090680595790502
6.238226865263499 26.041773134736502 20.4967731347365
28.8357731347365 31.786226865263494 25.3987731347365
7.972226865263501 25.860319404209502 11.6147731347365
5.9237731347365 20.6653194042095 16.8323194042095
15.316226865263495 21.4146805957905 21.1487731347365
12.9632268652635 13.793773134736501 11.6937731347365
14.247680595790499 13.5032268652635 31.021226865263493
14.976319404209502 10.6647731347365 10.9527731347365
31.2147731347365 27.113773134736498 20.2987731347365
25.8427731347365 23.703319404209502 19.9977731347365
19.934226865263504 8.460680595790492 0.816226865263495
26.6742268652635 1.681226865263504 25.9637731347365
18.107319404209502 2.4947731347364996 1.3072268652634946
20.1347731347365 10.5967731347365 26.866773134736498
12.680680595790506 17.6127731347365 8.8787731347365
16.66068059579051 17.2397731347365 6.905226865263501
10.7487731347365 24.177773134736498 4.995773134736501
12.943226865263505 6.981226865263501 7.5647731347365
20.6777731347365 25.9097731347365 25.997226865263507
9.5062268652635 22.378773134736498 16.7637731347365
9.607226865263499 29.965319404209502 23.351226865263506
29.687773134736503 9.7897731347365 30.538773134736502
11.023226865263503 16.1633194042095 30.3337731347365
3.9727731347364994 15.700680595790502 7.7827731347365
9.183773134736501 2.1257731347365 6.243226865263502
4.491226865263499 28.9217731347365 28.411226865263494
30.199680595790497 27.178773134736502 19.386226865263502
12.4923194042095 9.648134326317503 28.269134326317513
3.899773134736501 14.0447731347365 6.8622268652635015
30.943226865263505 0.5642268652634996 9.261226865263502
12.264226865263502 24.1243194042095 4.664226865263501
25.9573194042095 22.6473194042095 31.7587731347365
18.1122268652635 21.7937731347365 19.843226865263496
18.785773134736502 10.275680595790504 10.267680595790495
31.735226865263506 8.2377731347365 8.5426805957905
27.608226865263497 7.658319404209504 30.626773134736503
25.154226865263503 21.307226865263495 3.5672268652634997
8.0877731347365 18.2937731347365 30.3837731347365
6.2102268652635 4.404226865263503 3.7592268652635
0.5682268652635045 19.6807731347365 25.3247731347365
18.8397731347365 5.4542268652635 17.77368059579051
5.339680595790497 10.4602268652635 19.7297731347365
25.486773134736502 1.7592268652635 9.160226865263503
4.1187731347365 24.7923194042095 6.113773134736499
19.9932268652635 14.0117731347365 4.617680595790503
15.0702268652635 31.477226865263496 13.6693194042095
27.9627731347365 8.631319404209503 2.894319404209501
4.4427731347365 1.9807731347365003 24.614226865263497
21.777226865263493 7.305226865263499 11.1987731347365
9.848226865263499 20.7177731347365 3.6507731347365002
12.704680595790492 31.4627731347365 8.342680595790497
7.8307731347365 1.6832268652634994 6.868226865263502
3.232680595790498 28.4517731347365 2.5472268652635037
29.2012268652635 29.7037731347365 24.1553194042095
12.4497731347365 18.0717731347365 26.196226865263505
5.7027731347365 24.9932268652635 25.8917731347365
29.6473194042095 4.796773134736501 22.3673194042095
13.764680595790495 18.1813194042095 26.7102268652635
1.479680595790498 8.2757731347365 3.340226865263496
9.654226865263503 24.0427731347365 21.8407731347365
11.212773134736501 2.300226865263504 21.3203194042095
26.699226865263505 27.3502268652635 27.892319404209502
6.335773134736501 11.3322268652635 26.4077731347365
26.4007731347365 24.486226865263497 14.997680595790499
21.1473194042095 11.609319404209504 14.329680595790492
11.6492268652635 9.2077731347365 29.468226865263496
24.803226865263504 26.2237731347365 31.989773134736502
5.0416805957904955 28.858773134736502 1.3946805957905042
9.150226865263498 7.928226865263504 10.107773134736501
31.257226865263497 6.4056805957905 23.7222268652635
17.822226865263495 14.7547731347365 12.203226865263495
14.4553194042095 14.789226865263501 30.644680595790504
7.453226865263495 24.1097731347365 11.8412268652635
13.528226865263498 16.5882268652635 4.136773134736501
7.9306805957905055 3.485773134736501 13.810226865263495
14.0987731347365 21.6177731347365 7.711226865263498
29.6317731347365 31.3273194042095 15.1952268652635
30.1603194042095 15.459680595790502 4.6447731347365
13.513226865263498 13.0062268652635 6.343226865263496
9.9867731347365 12.9337731347365 13.791226865263503
12.895226865263503 0.5132268652634977 8.058680595790506
13.1277731347365 5.094134326317516 18.4403194042095
26.076680595790506 13.0563194042095 28.9512268652635
7.780773134736501 20.1742268652635 6.5152268652635
14.2907731347365 1.060680595790501 17.5107731347365
6.419226865263504 20.761226865263502 1.1382268652634977
20.5917731347365 29.818226865263505 6.879226865263497
30.3577731347365 7.1027731347365 29.501773134736503
0.897226865263498 12.6337731347365 11.7377731347365
21.250773134736498 1.739680595790503 14.909226865263498
4.284680595790505 19.647226865263498 7.1266805957905035
17.134226865263493 1.5357731347365 29.607319404209502
0.749680595790494 19.0053194042095 23.797773134736502
1.376773134736501 10.686773134736502 17.6497731347365
0.04222686526350117 4.5142268652635025 1.5522268652634992
3.830226865263505 25.6767731347365 0.093226865263496
20.5757731347365 23.5907731347365 31.539226865263494
13.597680595790493 10.472680595790493 28.2597731347365
10.773134326317503 0.7247731347365001 21.8786805957905
11.106226865263501 31.1447731347365 23.0287731347365
14.1667731347365 4.859680595790493 23.852226865263496
15.0097731347365 9.869773134736501 15.363773134736501
28.0303194042095 10.9807731347365 2.7802268652635007
16.068226865263505 14.8793194042095 19.541773134736502
7.0157731347365 11.1736805957905 3.043226865263499
13.527773134736501 6.705226865263505 7.3947731347365
7.1432268652635 30.9797731347365 20.8887731347365
28.0297731347365 7.712226865263496 11.8913194042095
6.4277731347364995 21.8367731347365 16.180680595790506
24.2437731347365 26.2557731347365 10.279226865263503
18.6196805957905 23.852226865263496 20.1517731347365
17.1587731347365 13.947226865263495 22.0993194042095
8.0947731347365 23.867226865263497 16.5687731347365
4.871226865263502 15.094773134736501 2.581680595790502
13.388226865263498 21.5483194042095 9.123680595790503
21.020226865263503 18.8412268652635 20.678226865263504
28.474773134736502 4.245226865263497 19.3717731347365
10.6982268652635 30.107226865263506 23.5147731347365
5.9047731347365 27.3442268652635 5.907226865263503
10.871319404209498 11.142773134736501 2.087680595790502
14.9487731347365 13.290226865263499 31.253773134736498
27.551226865263494 18.889226865263502 3.688226865263495
29.870773134736503 0.7916805957904955 9.822319404209498
5.8752268652635 9.017680595790495 30.021226865263493
29.4787731347365 16.436680595790506 14.3907731347365
5.789226865263501 10.8703194042095 1.1266805957905035
17.754226865263497 3.340226865263496 3.511773134736501
10.763680595790504 28.7312268652635 11.9327731347365
7.163226865263503 31.1457731347365 7.8397731347365
5.985319404209502 22.794773134736502 16.1507731347365
6.073680595790506 14.386226865263502 1.1496805957904996
28.7083194042095 27.152226865263493 24.806773134736503
7.813680595790501 1.8596805957904934 6.101226865263499
4.7317731347365 19.9152268652635 11.959226865263496
13.2047731347365 10.2957731347365 28.5607731347365
13.2917731347365 23.3513194042095 28.421319404209502
24.6457731347365 9.556226865263504 30.741773134736498
8.1727731347365 16.53268059579051 29.614773134736502
11.0417731347365 12.3382268652635 25.598226865263506
18.1487731347365 12.4397731347365 3.921773134736501
7.354226865263499 29.7137731347365 20.6712268652635
21.869226865263506 22.741226865263506 29.4513194042095
2.3812268652635 26.0177731347365 21.190680595790496
9.2087731347365 30.1507731347365 28.9572268652635
16.229226865263506 14.959226865263496 13.6197731347365
16.90768059579051 28.1037731347365 30.020319404209502
13.0377731347365 17.5636805957905 27.867226865263497
18.6982268652635 8.895226865263503 7.957319404209503
18.5877731347365 23.336226865263505 0.2957731347364998
9.031680595790505 11.578226865263495 7.523226865263503
20.0552268652635 8.2847731347365 25.372226865263507
15.9257731347365 9.831226865263496 4.263226865263498
6.3777731347365005 30.0863194042095 19.751226865263497
1.370226865263497 10.531319404209501 29.3797731347365
16.7147731347365 13.283319404209504 7.005226865263502
9.735226865263499 8.290226865263499 7.9457731347365
5.191680595790501 18.2923194042095 11.581773134736501
18.1316805957905 10.815226865263504 17.9463194042095
2.5372268652634986 15.389773134736501 29.078319404209502
27.315773134736503 23.9452268652635 8.183773134736501
29.924319404209502 11.302773134736501 8.971226865263496
1.2882268652635034 11.9272268652635 29.547226865263504
20.507226865263497 23.925226865263504 16.708226865263505
8.338773134736499 2.1197731347364996 31.301226865263494
1.066226865263495 22.996226865263502 20.1007731347365
14.127319404209498 25.8517731347365 1.9656805957905021
29.143226865263493 13.584773134736501 0.9652268652634959
23.5917731347365 20.9537731347365 23.744319404209502
22.2252268652635 24.6892268652635 10.989226865263497
27.837319404209502 20.4297731347365 3.238226865263499
31.033226865263494 4.5957731347365005 1.694226865263495
19.935226865263495 0.9882268652634991 32.1303194042095
29.2227731347365 27.022680595790504 8.294134326317504
4.744226865263499 28.2393194042095 11.4257731347365
2.4352268652634947 26.3447731347365 22.9697731347365
11.9177731347365 5.342226865263498 3.456773134736501
20.610226865263506 0.8692268652634993 1.6872268652635043
18.130226865263502 21.542226865263494 29.4803194042095
30.711226865263505 16.541773134736502 5.504226865263497
8.9287731347365 23.9572268652635 0.9772268652634963
22.461226865263505 15.705680595790497 22.6297731347365
5.738680595790498 10.668226865263499 23.8052268652635
23.679226865263495 11.657226865263503 13.496226865263502
15.401226865263503 8.1387731347365 26.741773134736498
13.1677731347365 16.2407731347365 10.7777731347365
18.4152268652635 1.7192268652635008 22.857226865263506
7.286226865263501 12.763226865263498 16.181680595790496
5.0547731347365 4.178134326317505 0.7652268652635001
29.1627731347365 11.792319404209504 8.924226865263499
0.6252268652634996 15.488773134736501 18.3307731347365
9.720226865263498 15.341773134736501 9.536226865263501
16.402226865263493 13.836319404209501 22.288226865263503
15.2057731347365 13.575773134736501 7.897226865263498
21.0637731347365 3.5077731347364995 28.149226865263493
10.066680595790501 3.684226865263504 10.1057731347365
21.052319404209502 13.617680595790503 11.270773134736501
0.8062268652635041 1.4382268652634949 15.882226865263497
1.1296805957905036 26.2727731347365 25.2147731347365
0.8596805957904934 2.799226865263499 15.456773134736501
0.38568059579050384 11.9417731347365 24.0433194042095
3.479773134736501 16.4717731347365 28.7287731347365
21.245226865263497 0.8492268652634962 23.041773134736502
15.492134326317512 21.2927731347365 24.2707731347365
16.9452268652635 3.3142268652634996 3.2127731347364996
16.822226865263495 20.0733194042095 14.674773134736501
7.6067731347365 7.9197731347365 15.727226865263496
6.1727731347365005 23.9707731347365 2.3352268652635004
15.861226865263497 7.944773134736501 20.933319404209502
31.058773134736498 3.985319404209502 21.526226865263503
30.439773134736498 4.300226865263504 22.541773134736502
13.601226865263499 22.907226865263503 13.467226865263498
2.502226865263502 15.764773134736501 15.997226865263507
20.1892268652635 13.0287731347365 21.7387731347365
5.519226865263498 10.454319404209503 21.5077731347365
7.2887731347365 26.1213194042095 15.2973194042095
10.9937731347365 23.5707731347365 29.3567731347365
19.6062268652635 24.8367731347365 20.599226865263496
30.387226865263493 7.733226865263497 7.236226865263497
11.1117731347365 21.512226865263493 10.840226865263496
25.544773134736502 15.9877731347365 18.3262268652635
30.1047731347365 24.580226865263505 4.028319404209501
28.7087731347365 4.732226865263499 18.5667731347365
6.3322268652635 15.475226865263501 4.258226865263502
29.9157731347365 10.413680595790495 4.0427731347365
7.0517731347365 18.4916805957905 31.622319404209502
8.996680595790494 2.279226865263503 26.1707731347365
5.284773134736501 8.879226865263497 5.136226865263502
1.7062268652634955 9.135226865263498 3.3947731347365
29.2753194042095 17.0217731347365 14.675226865263504
17.694226865263495 15.6917731347365 19.3087731347365
3.7612268652635024 3.5882268652635005 11.2207731347365
27.065226865263504 1.526226865263503 24.613226865263506
26.120773134736503 12.749319404209498 27.8797731347365
3.7582268652635022 4.050773134736501 0.34668059579050237
31.1157731347365 3.157226865263503 1.336588056844505
3.7012268652635 4.034680595790505 12.1252268652635
6.4007731347365 31.690773134736503 10.449226865263505
0.5592268652635042 24.0497731347365 21.8567731347365
23.492226865263497 27.8773194042095 5.9277731347364995
15.6967731347365 24.962319404209502 29.7083194042095
14.2287731347365 8.9357731347365 10.6287731347365
1.2367731347365005 11.1297731347365 0.2747731347365008
31.9423194042095 7.606226865263501 10.7017731347365
4.8042268652634945 24.172773134736502 5.376226865263497
6.522226865263498 11.3307731347365 25.6077731347365
30.632226865263497 15.471226865263496 28.6437731347365
5.949680595790497 5.5542268652634945 22.4487731347365
22.8777731347365 5.718319404209499 17.2067731347365
8.935680595790501 29.2233194042095 22.489773134736502
15.179226865263495 1.8337731347365 4.1487731347365
5.415134326317514 25.3047731347365 3.2202268652634984
23.4422268652635 4.2097731347364995 30.3653194042095
3.1392268652635025 2.938226865263495 31.6563194042095
25.126773134736503 10.9127731347365 4.447226865263495
31.858773134736502 1.992226865263497 15.8917731347365
12.9577731347365 19.769226865263498 0.7407731347365001
9.564680595790506 23.8187731347365 16.532226865263503
18.2012268652635 5.3932268652635 19.9206805957905
30.052773134736498 0.43368059579050566 17.608226865263497
31.9753194042095 24.0606805957905 6.966773134736501
1.1872268652635043 27.0267731347365 8.117773134736499
24.7883194042095 7.388680595790504 27.352226865263496
20.390226865263493 7.180226865263499 25.7783194042095
18.211226865263505 3.1692268652635036 0.9407731347365011
9.345226865263498 22.9327731347365 27.7962268652635
20.293680595790505 24.292226865263494 0.5616805957905058
25.148226865263503 4.613680595790498 23.470680595790498
2.6022268652634963 19.2687731347365 13.188226865263495
16.114226865263497 4.663226865263503 26.6892268652635
9.9482268652635 16.160773134736502 4.128680595790499
26.8412268652635 16.7252268652635 20.0887731347365
24.4388656736825 16.322226865263495 0.05622686526350407
5.405773134736501 4.898226865263503 3.162680595790505
10.3617731347365 20.718319404209502 1.0882268652635005
24.135226865263498 9.6407731347365 31.0183194042095
27.6467731347365 7.444226865263495 1.7002268652634953
6.748958212628509 30.0113194042095 20.9296805957905
9.3932268652635 15.7917731347365 3.2246805957905025
12.856226865263501 18.5907731347365 28.2617731347365
28.184773134736503 4.624680595790494 19.518226865263493
1.5612268652634995 24.831226865263496 20.6562268652635
27.931773134736503 12.562226865263504 11.520773134736501
22.4217731347365 1.772226865263498 22.009226865263493
0.9822268652634989 17.6832268652635 31.690226865263504
10.290226865263499 9.8966805957905 11.7277731347365
10.959773134736501 1.8042268652634945 31.748226865263497
24.3197731347365 29.488773134736498 15.6772268652635
11.2257731347365 28.802773134736498 29.1047731347365
0.6392268652635025 25.1937731347365 25.897226865263498
18.0517731347365 20.078226865263495 16.4086805957905
8.670319404209504 3.1936805957904966 6.974319404209499
14.7177731347365 11.8627731347365 6.4817731347365
26.215226865263496 2.716773134736501 18.257134326317512
25.8177731347365 2.0452268652635013 10.577680595790497
4.220226865263498 12.7377731347365 7.970226865263498
5.459680595790502 4.4162268652635035 10.076680595790492
5.299226865263499 24.3412268652635 1.8017731347365
31.769226865263498 12.9017731347365 9.598226865263499
1.9316805957904961 8.0917731347365 2.4932268652635017
5.656226865263498 13.918226865263499 13.140319404209503
1.8482268652634986 24.177773134736498 30.8793194042095
15.9047731347365 14.9357731347365 0.021226865263500372
5.844226865263501 20.2842268652635 7.0542268652634945
29.148319404209502 12.1587731347365 31.0987731347365
0.5837731347365 17.7407731347365 9.6857731347365
14.584226865263496 9.8172268652635 11.368680595790494
7.051226865263494 10.703226865263495 4.629773134736499
15.2977731347365 15.3537731347365 15.2337731347365
13.177773134736501 5.072226865263495 14.483226865263497
21.8707731347365 30.3797731347365 17.154226865263503
3.2202268652634984 23.864773134736502 21.6533194042095
10.544226865263504 13.727226865263496 14.604226865263499
18.1527731347365 17.8947731347365 22.4917731347365
7.2117731347365 30.5107731347365 9.0336805957905
10.619773134736501 25.111226865263497 4.296226865263499
6.2157731347365 11.203773134736501 22.0787731347365
0.041680595790495545 19.6877731347365 11.863319404209502
17.5637731347365 7.097226865263501 20.7557731347365
2.328773134736501 11.829134326317515 11.458680595790497
11.6257731347365 29.930773134736498 29.049319404209502
21.9477731347365 12.831773134736501 23.8567731347365
10.6737731347365 30.4557731347365 16.9567731347365
4.790773134736501 1.4092268652634985 25.1592268652635
21.274226865263493 25.4233194042095 26.845226865263506
11.0156805957905 29.6862268652635 16.649226865263493
29.377226865263502 31.157226865263503 23.419226865263504
1.384680595790499 5.293226865263499 5.005680595790494
20.9097731347365 2.5207731347364994 16.039226865263494
24.3567731347365 13.1997731347365 26.1263194042095
24.990865673682507 23.018226865263493 19.218226865263496
24.598226865263506 28.9602268652635 26.9087731347365
9.344680595790493 12.411226865263501 6.777773134736501
17.993680595790508 13.304226865263495 26.0517731347365
18.6457731347365 27.2137731347365 9.4117731347365
17.6387731347365 9.8757731347365 0.43922686526349963
8.357319404209502 0.6922268652634997 1.001773134736501
17.139226865263502 28.8457731347365 21.579680595790506
22.797773134736502 15.413226865263503 17.7197731347365
2.0057731347365007 0.5962268652634961 5.005773134736501
2.8726805957904986 11.9362268652635 11.542319404209504
12.557226865263495 28.0197731347365 0.34122686526350066
10.4147731347365 14.9617731347365 21.6182268652635
27.3073194042095 1.0516805957905007 6.2567731347365
4.0847731347364995 4.7786805957905045 2.1992268652635047
3.2942268652635036 6.985773134736501 24.0567731347365
1.3562268652635012 3.8423194042095012 7.484226865263501
24.0927731347365 29.738773134736498 24.835680595790507
24.4163194042095 22.8022268652635 3.719773134736501
28.913773134736502 4.5682268652635045 27.007226865263497
26.5167731347365 1.1556805957904999 30.175226865263504
25.2987731347365 2.0736805957905062 11.769226865263498
6.793411943155505 2.7633194042095006 6.526134326317504
18.992226865263497 13.942680595790506 6.275680595790504
21.331226865263496 15.200773134736501 4.2372268652635015
