16.956226865263496 3.9562268652634955 14.0367731347365
28.6676805957905 15.999226865263502 3.5102268652634976
27.3457731347365 18.897226865263498 25.422226865263504
9.3967731347365 11.3082268652635 18.9527731347365
23.8847731347365 21.1207731347365 19.000226865263507
27.1213194042095 23.4787731347365 19.4513194042095
30.1467731347365 13.643319404209503 10.148226865263503
0.6256805957904987 27.370773134736503 19.7807731347365
24.3367731347365 3.8527731347365 13.412226865263499
12.409680595790505 18.9147731347365 20.7027731347365
12.757226865263497 27.9812268652635 32.128319404209506
25.9637731347365 8.6162268652635 19.3597731347365
23.038226865263503 29.328319404209502 29.527226865263493
26.1062268652635 22.4037731347365 12.8812268652635
8.587773134736501 11.242226865263497 26.9673194042095
14.9912268652635 9.5092268652635 29.2797731347365
4.373226865263497 3.1857731347365004 2.9502268652634953
30.360226865263506 25.6592268652635 19.2127731347365
31.1553194042095 18.773319404209502 21.0197731347365
5.7927731347365 1.2432268652635017 19.3887731347365
24.2327731347365 10.5912268652635 12.5737731347365
11.784226865263498 13.411226865263501 11.367226865263497
8.950773134736501 30.887226865263493 21.982226865263506
4.907226865263503 29.283226865263494 31.6077731347365
20.5427731347365 21.7577731347365 16.8457731347365
3.519226865263498 14.1312268652635 25.7987731347365
16.105680595790503 8.2907731347365 22.6493194042095
9.212773134736501 15.0762268652635 29.244226865263506
24.3483194042095 0.7456805957905033 4.424226865263499
30.0907731347365 1.2907731347365008 6.860680595790498
22.2217731347365 2.2637731347364998 0.9036805957905045
1.2473194042095024 7.562680595790496 15.1807731347365
16.8627731347365 8.4737731347365 21.1317731347365
28.2723194042095 21.4217731347365 1.0496805957905053
5.884680595790499 0.3092268652635042 27.0306805957905
6.988680595790498 4.957773134736501 12.423226865263501
28.166773134736502 16.966680595790507 7.2622268652635
31.3993194042095 5.1157731347365 31.2127731347365
10.3632268652635 9.734226865263501 17.730226865263496
5.790226865263499 17.018226865263493 21.230773134736502
27.171319404209502 15.3857731347365 16.8887731347365
25.6097731347365 15.644226865263498 12.386680595790494
4.697226865263495 28.5937731347365 1.0102268652634976
29.0087731347365 21.4557731347365 31.7687731347365
6.1052268652634964 24.2437731347365 12.2797731347365
18.275226865263498 27.843319404209502 12.5807731347365
6.267773134736501 24.2697731347365 8.909226865263498
8.026226865263503 6.1647731347365 6.4206805957905
21.605773134736502 20.6377731347365 17.7072268652635
21.2087731347365 18.5762268652635 21.2157731347365
13.8662268652635 25.625226865263507 16.024226865263493
10.4327731347365 7.7302268652634964 24.4557731347365
15.193226865263505 13.5857731347365 16.411226865263494
16.6047731347365 1.0217731347365007 21.9812268652635
21.468226865263496 20.1857731347365 20.9512268652635
3.9986805957905034 2.813226865263495 4.4802268652634964
1.8662268652634992 12.624226865263502 26.188226865263495
3.3412268652635007 12.830680595790497 23.131226865263493
7.405773134736501 31.9893194042095 25.4542268652635
2.4902268652635016 18.2207731347365 18.235226865263506
24.7783194042095 10.826319404209503 26.518226865263493
21.7847731347365 13.863773134736501 4.997319404209502
14.461226865263498 12.046226865263499 24.2192268652635
32.0907731347365 17.9257731347365 21.5327731347365
18.9673194042095 15.997319404209502 9.4722268652635
18.9673194042095 6.059680595790496 30.6497731347365
8.810226865263495 19.517226865263503 23.872319404209502
28.7192268652635 0.9162268652635035 2.6567731347365005
30.7693194042095 22.029319404209502 11.300226865263504
26.3607731347365 17.395319404209502 17.119319404209502
31.2667731347365 30.683773134736498 29.1123194042095
28.2747731347365 8.6132268652635 3.4451343263175147
6.010226865263498 22.4027731347365 30.4097731347365
31.4327731347365 4.961680595790497 30.078226865263495
13.720680595790498 13.1952268652635 4.672226865263504
22.2387731347365 22.910226865263503 18.220226865263506
15.330226865263505 2.067680595790506 25.6002268652635
24.7617731347365 30.3417731347365 30.759226865263493
0.40668059579050464 0.2692268652634979 22.664226865263494
16.029226865263503 5.179680595790501 13.0747731347365
3.9542268652635 27.565226865263504 9.975680595790493
23.3293194042095 4.779226865263503 30.0197731347365
9.5582268652635 17.314680595790506 25.3227731347365
21.4353194042095 29.2967731347365 16.5927731347365
24.0683194042095 20.6377731347365 15.423319404209504
23.724773134736502 26.8903194042095 5.575773134736501
23.4457731347365 21.805319404209502 1.2877731347365007
17.204680595790506 17.135226865263498 1.2882268652635034
0.8842268652634999 17.6877731347365 11.087773134736501
28.060226865263495 10.185226865263495 6.503680595790499
8.2132268652635 30.4027731347365 23.9632268652635
1.5327731347365 18.5957731347365 27.5402268652635
15.835319404209503 17.0606805957905 1.019226865263498
14.1417731347365 6.5747731347365 18.0163194042095
19.0247731347365 23.848226865263506 7.7577731347364995
25.1477731347365 12.730680595790503 12.3047731347365
3.7172268652634983 4.6892268652635 30.941226865263495
12.296226865263499 23.500773134736498 28.4067731347365
3.0182268652635003 19.431680595790496 10.032226865263503
13.6753194042095 20.6997731347365 30.372319404209502
1.2802268652635007 24.666773134736502 5.8322268652635
24.495773134736503 6.540226865263499 25.857226865263506
11.8327731347365 1.7756805957905044 25.693226865263505
21.3577731347365 27.389226865263502 16.1307731347365
21.017226865263503 27.2657731347365 17.5437731347365
21.2102268652635 19.5612268652635 10.825773134736501
13.1157731347365 0.2902268652634987 25.4743194042095
5.8907731347365 11.874226865263502 10.532226865263503
3.8976805957905043 2.4427731347365 2.7372268652635015
23.236226865263497 20.556226865263504 8.169680595790496
8.1492268652635 15.674319404209502 31.2677731347365
30.8427731347365 22.3382268652635 0.6032268652635011
4.738773134736499 1.0122268652635 19.205680595790497
0.5197731347365 20.624226865263502 20.4727731347365
7.663226865263503 15.4647731347365 4.979680595790498
17.5037731347365 28.0927731347365 5.574226865263505
14.9807731347365 25.4753194042095 15.2087731347365
1.514773134736501 0.8226805957905015 7.7712268652635
0.9296805957905008 0.7292268652634988 6.793226865263499
21.4433194042095 15.5997731347365 17.3657731347365
28.7707731347365 7.5412268652635035 22.8873194042095
16.4422268652635 11.3632268652635 0.3347731347364995
12.443226865263505 25.282226865263503 7.466773134736501
7.496226865263502 6.4357731347365 18.386226865263502
1.9267731347365 19.349773134736502 17.835680595790507
13.5947731347365 0.2586805957904943 12.822226865263495
8.893319404209503 12.486226865263497 17.473226865263506
22.712226865263496 26.3052268652635 22.8977731347365
6.4367731347365 14.9967731347365 5.964680595790497
26.485226865263506 23.5762268652635 12.5387731347365
21.5017731347365 19.5127731347365 23.288773134736502
30.9063194042095 17.1097731347365 4.1952268652635
14.9022268652635 26.520226865263503 3.453773134736501
27.8673194042095 27.7817731347365 15.6187731347365
16.679226865263495 19.627226865263502 16.8167731347365
31.815773134736503 15.3277731347365 9.6357731347365
9.0133194042095 19.9267731347365 22.4182268652635
12.7977731347365 14.095680595790498 4.1737731347365
6.363134326317507 1.2336805957905028 31.664226865263494
5.163319404209499 16.4757731347365 21.7137731347365
17.077226865263505 4.609226865263501 13.0197731347365
15.1757731347365 20.208226865263505 25.677773134736498
25.330226865263505 2.4402268652635044 15.703226865263495
0.3607731347365011 29.075319404209502 29.3927731347365
27.6583194042095 17.5337731347365 27.1977731347365
30.4313194042095 25.1047731347365 19.908226865263494
24.2597731347365 13.442680595790506 19.525226865263498
4.6887731347365005 30.812773134736503 23.169226865263504
1.6452268652635027 12.3737731347365 5.2102268652635
3.7567731347365 19.3757731347365 3.1453194042094985
19.6197731347365 30.0822268652635 3.0272268652635006
10.7167731347365 25.925773134736502 5.844226865263501
25.8307731347365 17.0227731347365 20.7607731347365
13.3966805957905 28.4177731347365 22.7987731347365
9.645773134736501 24.294226865263504 14.859226865263501
4.206680595790502 31.053773134736502 28.8227731347365
26.137226865263493 19.9117731347365 15.861226865263497
27.4717731347365 9.8662268652635 9.970226865263498
3.2946805957904957 3.043773134736501 2.0687731347364995
8.9057731347365 18.709226865263496 26.236773134736502
0.9606805957904925 15.490319404209497 11.2222268652635
19.0887731347365 24.901226865263503 30.2497731347365
9.752226865263502 29.8477731347365 28.0187731347365
2.4886805957904983 4.5342268652634985 28.7313194042095
26.6127731347365 13.8067731347365 27.604680595790498
16.569226865263495 23.6622268652635 31.739226865263497
10.2307731347365 30.391226865263498 27.215319404209502
16.9422268652635 1.0357731347365 21.6847731347365
30.267226865263503 20.940226865263504 30.9557731347365
25.6107731347365 30.9573194042095 30.1417731347365
29.3843194042095 25.5697731347365 19.500226865263507
17.7617731347365 2.1257731347365 11.6492268652635
11.0612268652635 26.988773134736498 12.4677731347365
26.181773134736503 1.9607731347365007 25.018226865263493
21.1477731347365 9.023319404209499 10.885226865263498
5.0317731347365005 8.4397731347365 17.494226865263506
31.2667731347365 18.9452268652635 5.0612268652634995
20.6397731347365 22.4476805957905 16.854226865263506
5.575773134736501 1.3667731347364995 18.6007731347365
30.898865673682508 0.3152268652635044 7.5227731347365
3.4687731347365 31.209319404209502 31.413773134736502
21.276319404209502 14.1753194042095 23.178680595790496
12.3647731347365 5.110773134736501 19.3657731347365
10.7117731347365 6.557226865263495 6.6727731347365005
0.8982268652635028 4.045226865263501 30.8847731347365
6.864226865263497 3.891226865263498 24.0487731347365
12.049226865263499 5.092226865263498 12.0897731347365
23.3592268652635 1.3987731347364996 2.206773134736501
4.928226865263504 28.869319404209502 15.6432268652635
7.988680595790498 3.7006805957905016 29.998226865263497
0.5522268652634992 17.909680595790505 12.742680595790503
23.249680595790508 27.745773134736503 17.6557731347365
24.187226865263504 8.369680595790499 5.598773134736501
19.2197731347365 4.678773134736501 25.200226865263495
29.025226865263498 8.6917731347365 20.789226865263494
0.2306805957905027 12.634680595790499 17.127226865263502
25.879226865263497 18.179226865263495 14.466319404209504
22.6837731347365 2.9846805957904934 13.048226865263501
11.311773134736502 25.5967731347365 16.90168059579051
1.0977731347364994 17.9817731347365 3.827226865263505
11.9117731347365 29.364773134736502 31.175773134736502
27.8333194042095 24.779226865263503 13.874226865263502
21.9482268652635 19.6353194042095 18.0977731347365
21.4267731347365 7.709680595790502 8.6173194042095
13.9847731347365 6.046773134736501 28.250226865263507
26.5636805957905 28.5458656736825 18.5967731347365
31.6693194042095 5.796226865263499 29.253226865263507
2.3722268652634995 8.090773134736502 30.5027731347365
9.406226865263498 27.6557731347365 3.5936805957905023
25.6913194042095 26.875319404209502 3.898680595790495
17.766226865263498 1.9576805957904924 29.0397731347365
30.1323194042095 20.3347731347365 15.8262268652635
11.798226865263501 12.967226865263498 1.0502268652635038
29.861773134736502 8.727226865263496 29.2797731347365
27.253773134736498 8.303680595790496 19.608773134736502
13.4572268652635 2.444226865263495 31.5107731347365
19.8683194042095 5.5577731347365 26.9663194042095
31.1313194042095 5.715680595790502 29.9953194042095
10.7187731347365 7.847773134736499 9.5417731347365
20.169226865263504 1.6372268652635 2.550226865263504
25.484680595790508 24.519680595790504 12.374226865263502
14.151680595790495 24.352773134736502 22.2577731347365
5.488226865263499 5.772226865263498 24.4557731347365
12.5097731347365 29.1922268652635 0.40722686526350316
17.4297731347365 6.3377731347365 30.7787731347365
12.904226865263503 24.271226865263493 29.3592268652635
9.726226865263499 25.074226865263505 25.270319404209502
30.3807731347365 17.101226865263506 5.718680595790502
5.662680595790505 7.350319404209504 5.479226865263499
28.214226865263505 3.0912268652635007 16.438226865263495
3.8892268652635025 8.440226865263504 7.546226865263499
3.3382268652635005 31.5327731347365 6.883773134736501
7.239680595790503 27.7607731347365 8.441680595790501
14.975226865263501 29.259226865263493 24.684773134736503
12.130226865263502 23.5727731347365 5.740226865263502
17.397680595790504 25.886226865263502 31.898226865263503
2.050226865263504 1.735773134736501 7.483226865263497
10.740226865263502 29.672773134736502 30.9937731347365
17.9422268652635 3.3842268652635 23.2027731347365
26.2902268652635 26.8597731347365 7.803226865263504
20.6237731347365 8.578226865263495 16.5367731347365
3.9387731347365005 8.773226865263503 16.7463194042095
1.1132268652634991 24.1247731347365 1.928226865263504
11.1297731347365 15.036226865263501 27.8927731347365
0.4162268652635035 30.0107731347365 22.4057731347365
24.1337731347365 20.1387731347365 14.8782268652635
20.446680595790497 15.447680595790501 25.4487731347365
23.770226865263503 26.1802268652635 3.995226865263497
15.481226865263501 11.0607731347365 12.333134326317506
15.6347731347365 19.208226865263505 16.9842268652635
29.250319404209502 9.7107731347365 11.090226865263496
12.7217731347365 22.349226865263496 26.1182268652635
27.4487731347365 15.589319404209501 15.816226865263495
0.4036805957905045 22.0737731347365 12.7197731347365
11.5182268652635 24.392226865263503 7.7477731347365
9.3807731347365 12.7797731347365 19.4517731347365
18.0912268652635 16.9867731347365 7.958226865263498
12.049226865263499 3.1082268652634966 3.4847731347365
26.9797731347365 16.905226865263494 27.911226865263494
18.9247731347365 17.116226865263506 8.4482268652635
3.9482268652635 8.9807731347365 10.986680595790503
19.1092268652635 25.757226865263497 13.4907731347365
15.130226865263502 3.1552268652635007 25.4187731347365
21.0607731347365 14.325773134736501 20.4717731347365
9.149773134736499 0.5262268652635029 7.155226865263501
17.845226865263506 21.0006805957905 27.4017731347365
7.700773134736501 20.542226865263494 1.0246805957904996
12.1987731347365 7.272680595790504 32.0493194042095
28.925226865263504 21.5857731347365 6.465226865263496
23.8707731347365 1.8596805957904934 20.905226865263494
6.8457731347365005 9.021865673682498 12.692680595790506
29.8292268652635 16.852773134736502 3.755226865263502
25.589226865263505 17.0883194042095 19.533226865263494
19.735319404209502 14.8467731347365 23.007226865263497
16.2372268652635 2.9337731347364997 23.592226865263505
27.087226865263496 10.1857731347365 5.330226865263505
3.1277731347365005 8.871226865263502 6.1547731347365
30.205680595790497 2.7242268652634962 32.0217731347365
31.4757731347365 25.530226865263494 5.410226865263503
6.276680595790495 17.2077731347365 3.529226865263503
12.546773134736501 25.827226865263505 16.1047731347365
25.7036805957905 29.2057731347365 19.4407731347365
15.3427731347365 20.202226865263505 18.5647731347365
20.2827731347365 29.684773134736503 20.2402268652635
30.8957731347365 21.390226865263493 12.8197731347365
10.605226865263496 2.0367731347364995 28.6747731347365
13.7377731347365 18.5987731347365 16.7757731347365
10.2897731347365 8.191226865263495 8.9877731347365
5.214226865263498 28.6557731347365 16.5427731347365
16.767226865263503 8.154226865263503 21.241226865263506
7.102226865263496 19.7227731347365 9.120773134736499
5.656226865263498 7.528226865263498 29.606680595790507
29.4247731347365 21.0377731347365 6.898680595790495
15.651680595790495 26.8777731347365 0.31568059579049645
25.3137731347365 17.4182268652635 18.0307731347365
9.7917731347365 4.1967731347365 28.944226865263495
18.0638656736825 10.735226865263499 27.5183194042095
31.232319404209502 29.416773134736502 21.0372268652635
15.671226865263499 1.7822268652635032 27.538226865263503
23.9327731347365 6.5847731347364995 1.8282268652634954
12.043773134736501 29.113773134736498 19.135226865263498
18.889226865263502 0.7577731347364995 28.1633194042095
15.3777731347365 26.2853194042095 32.1657731347365
25.7372268652635 27.8187731347365 3.6852268652634947
8.081319404209498 2.6807731347364996 21.374226865263502
11.604226865263499 28.6447731347365 22.690226865263504
5.587680595790502 19.538773134736502 22.5437731347365
16.8763194042095 16.0263194042095 20.259226865263493
15.139319404209498 13.758319404209498 17.3623194042095
18.6107731347365 1.3427731347365004 27.9467731347365
6.3827731347364995 8.5642268652635 16.0767731347365
17.468226865263496 22.372319404209502 31.2937731347365
8.565226865263504 26.1683194042095 9.367226865263497
4.824680595790497 30.6017731347365 25.428773134736502
2.9702268652634984 14.9602268652635 22.311680595790506
9.039319404209504 7.656226865263498 2.4547731347365005
10.9497731347365 15.926226865263494 28.5193194042095
13.3807731347365 6.3782268652635 12.425226865263504
27.3883194042095 0.46022686526350043 2.1822268652634946
17.6127731347365 29.1437731347365 22.023319404209502
30.0113194042095 28.667226865263494 30.9383194042095
26.3593194042095 21.9577731347365 13.5187731347365
4.6387731347365 14.8033194042095 30.372773134736498
5.803773134736501 1.437773134736501 26.3763194042095
5.547134326317504 25.1437731347365 8.8907731347365
24.5487731347365 1.0892268652634982 24.1217731347365
30.241319404209502 18.9687731347365 15.4637731347365
26.1417731347365 1.2187731347364998 24.041226865263503
8.609680595790493 27.9782268652635 15.343226865263496
14.0272268652635 6.275226865263498 12.613773134736501
21.4763194042095 17.6757731347365 27.0582268652635
25.2847731347365 20.3547731347365 17.8387731347365
23.4577731347365 20.4302268652635 6.243680595790494
2.5416805957904955 26.6293194042095 1.6092268652635013
15.599680595790502 11.829319404209503 17.8057731347365
23.007226865263497 15.1917731347365 31.150226865263498
4.708226865263498 20.0912268652635 1.9677731347365004
30.360319404209502 28.5713194042095 1.7426805957905032
21.6237731347365 6.477319404209499 6.562773134736501
4.515680595790499 24.434773134736503 9.0092268652635
24.063226865263495 24.413773134736502 9.5032268652635
11.776226865263503 16.044680595790496 27.599773134736502
19.9537731347365 20.495226865263497 18.7872268652635
19.568226865263505 17.4187731347365 4.615680595790494
8.324226865263505 20.5317731347365 23.029226865263503
10.0242268652635 2.012680595790499 28.3323194042095
6.144680595790504 3.6206805957905033 17.9147731347365
18.6357731347365 27.5637731347365 19.017226865263503
13.1522268652635 0.6407731347365004 16.8227731347365
5.896319404209503 1.9977731347364998 27.3726805957905
25.247319404209502 25.805319404209502 27.8137731347365
5.1312268652635 9.075226865263495 19.1053194042095
13.354680595790498 19.663226865263503 27.3533194042095
1.9737731347365006 12.3627731347365 23.7777731347365
20.636226865263502 22.970226865263506 27.4603194042095
18.565226865263504 4.711226865263498 24.640226865263493
18.4277731347365 11.170226865263501 27.065773134736503
23.8533194042095 29.620773134736503 22.566226865263495
10.0002268652635 4.868680595790494 28.0582268652635
28.852773134736502 31.327226865263505 3.2622268652635
25.5057731347365 9.384680595790499 4.610680595790498
29.190773134736503 28.4237731347365 11.240226865263502
18.230773134736502 17.8017731347365 4.1462268652635
14.063680595790501 25.4187731347365 2.2176805957904975
30.7877731347365 18.2177731347365 15.1437731347365
8.641226865263498 13.676226865263494 17.6256805957905
24.242773134736503 24.1062268652635 11.6083194042095
14.263680595790504 21.854226865263506 26.108773134736502
4.8047731347365 10.538226865263503 24.550226865263504
4.441226865263495 16.277226865263493 22.1993194042095
23.628319404209503 22.7767731347365 0.0132268652634977
11.053226865263504 22.812226865263504 16.3843194042095
7.992226865263497 23.5672268652635 30.0433194042095
31.934773134736503 16.937226865263504 0.9117731347364995
8.1737731347365 28.794773134736502 28.541773134736502
25.15468059579051 20.4467731347365 17.054226865263495
23.667226865263494 19.1277731347365 31.251773134736503
0.9352268652634947 17.023226865263503 19.900226865263498
13.383680595790494 5.815226865263504 13.4662268652635
22.855773134736502 26.104226865263506 24.194226865263495
5.0642268652635 24.147865673682503 8.633226865263502
31.3567731347365 29.3423194042095 30.660773134736502
24.354226865263506 22.0307731347365 19.0187731347365
13.014773134736501 31.955226865263505 10.3037731347365
20.631226865263493 1.056226865263504 3.0702268652635
19.401226865263503 0.8316805957905018 6.5852268652635
15.349226865263496 1.5542268652634945 0.9716805957905024
26.7577731347365 15.0897731347365 27.4842268652635
3.4672268652634983 0.2966805957905052 7.3697731347365
18.900680595790504 21.4542268652635 25.9727731347365
30.794773134736502 0.9777731347365002 6.586680595790497
29.0047731347365 2.691226865263495 7.3777731347365005
9.6067731347365 11.2222268652635 11.114226865263497
3.3137731347365005 7.3057731347365 8.674773134736501
14.5707731347365 13.6787731347365 16.3487731347365
14.087226865263496 27.754680595790504 22.5393194042095
1.4406805957904965 10.477680595790503 3.4417731347365006
7.111680595790503 13.8407731347365 0.42277313473650047
26.580226865263505 22.747226865263507 1.1312268652634998
17.776226865263503 24.0047731347365 0.578773134736501
6.647226865263498 26.6413194042095 29.0492268652635
2.566226865263495 24.737680595790508 8.983680595790503
16.4977731347365 29.456226865263496 23.0637731347365
12.208680595790497 6.3842268652635 0.8696805957904985
13.874226865263502 12.3217731347365 5.5267731347365
4.4452268652635 2.4842268652635013 3.065773134736501
27.0257731347365 16.4153194042095 5.335773134736501
22.111773134736502 30.3947731347365 28.3682268652635
14.7102268652635 8.943226865263505 22.634226865263493
0.5436805957905051 1.8662268652634992 25.205226865263505
2.857680595790498 11.2187731347365 20.8317731347365
10.831226865263496 1.3636805957904983 8.013226865263498
17.256773134736502 15.3697731347365 3.175226865263504
8.248680595790503 14.6892268652635 31.3682268652635
11.889680595790495 28.9283194042095 20.3202268652635
1.2622268652635 24.4753194042095 5.0957731347365005
8.427773134736501 8.9257731347365 2.1352268652634976
28.4693194042095 12.3232268652635 0.23477313473649986
11.9407731347365 12.732773134736501 11.244773134736501
2.1222268652634995 0.796226865263499 12.3847731347365
4.9802268652634964 25.6407731347365 9.1432268652635
5.674226865263499 19.8467731347365 22.8977731347365
15.210865673682505 3.9631343263175154 10.819319404209498
7.2467731347365 16.8607731347365 26.395226865263503
9.697680595790501 20.918680595790505 13.791226865263503
0.06577313473649937 3.9956805957905033 29.3133194042095
8.074680595790497 24.2282268652635 19.7463194042095
2.398226865263503 3.498226865263497 29.562773134736503
23.5867731347365 11.4512268652635 17.5097731347365
17.2677731347365 2.1136805957904983 18.4437731347365
23.6853194042095 4.548226865263501 8.045226865263501
17.8937731347365 11.246226865263502 9.022226865263498
32.0627731347365 24.9113194042095 13.7617731347365
21.385680595790504 6.572226865263495 26.238773134736498
4.199226865263505 2.0217731347365007 13.5737731347365
22.474226865263496 10.964226865263498 28.3887731347365
29.6987731347365 8.526680595790495 29.9422268652635
8.1297731347365 22.586680595790497 0.8712268652635018
16.083226865263505 3.137319404209503 11.387319404209503
13.7652268652635 7.540226865263499 28.943226865263505
3.3052268652634993 12.2956805957905 25.4223194042095
0.22222686526350088 14.9542268652635 18.4752268652635
29.1157731347365 10.065680595790496 9.3867731347365
19.074680595790497 18.187226865263504 9.897226865263498
10.398226865263503 31.593226865263496 10.3877731347365
5.540226865263499 0.6357731347364997 25.907319404209503
30.187773134736503 0.5977731347364994 5.796680595790505
4.886773134736501 1.0246805957904996 26.860226865263506
19.5227731347365 5.3687731347365 0.6902268652635044
7.5426805957905 14.386319404209498 4.095680595790498
25.7237731347365 12.035226865263503 24.8397731347365
23.072226865263495 8.212773134736501 12.6177731347365
11.9077731347365 0.5002268652634996 11.622773134736502
12.145226865263503 10.7237731347365 5.5707731347365
21.071226865263505 0.11622686526349923 7.470680595790498
11.693226865263505 5.776680595790495 13.834680595790502
27.991773134736498 26.080680595790497 14.3617731347365
12.406680595790505 27.639226865263502 0.23568059579049816
13.8202268652635 30.311773134736498 13.235226865263499
10.5857731347365 29.0817731347365 1.5717731347364996
16.6827731347365 5.739226865263497 5.412680595790505
5.5212268652635 7.790773134736501 30.4152268652635
6.145773134736499 22.8247731347365 1.9067731347365005
31.7553194042095 10.238773134736501 29.3997731347365
22.145319404209502 2.6083194042094995 30.3483194042095
5.947226865263495 7.690226865263504 30.0137731347365
7.0577731347365 14.659680595790505 7.0527731347364995
13.7567731347365 31.184773134736503 8.182226865263495
20.2623194042095 16.178226865263504 15.6892268652635
13.696226865263505 5.712680595790502 27.090226865263496
15.3217731347365 21.381226865263493 23.169773134736502
15.257226865263497 1.8562268652635012 30.764226865263502
6.9872268652635015 30.120773134736503 16.0687731347365
17.483226865263497 1.7872268652634986 20.691226865263495
21.194226865263495 30.683773134736498 29.9627731347365
10.946680595790497 26.7907731347365 8.688680595790501
25.910226865263503 17.8773194042095 31.672226865263504
6.300773134736501 20.2407731347365 23.543865673682504
15.673226865263501 3.6087731347365004 11.239226865263497
4.6547731347365 1.5777731347364998 26.424319404209502
23.476226865263506 20.980226865263496 0.7607731347364997
2.1662268652635035 4.809226865263504 9.624680595790494
12.1887731347365 0.8603194042095019 16.2657731347365
23.7567731347365 26.038226865263503 26.3167731347365
31.193226865263505 31.001773134736503 23.3237731347365
23.375865673682497 20.9047731347365 1.6716805957905052
30.0083194042095 31.1067731347365 5.984226865263501
9.6987731347365 16.945773134736502 31.3133194042095
27.1993194042095 29.1693194042095 19.5217731347365
24.619773134736498 6.363773134736499 27.6157731347365
8.725319404209504 22.7407731347365 22.870226865263497
7.395773134736499 30.7737731347365 23.4473194042095
7.9037731347365 18.9812268652635 15.354680595790498
7.145773134736499 3.222226865263501 24.189773134736498
0.9527731347364998 28.2207731347365 11.322226865263495
1.2952268652635013 12.276226865263503 17.0792268652635
5.690226865263504 13.8177731347365 10.4197731347365
11.427773134736501 12.6277731347365 4.184773134736501
1.0312268652634984 14.2127731347365 27.417226865263494
8.0762268652635 21.1592268652635 13.3457731347365
24.6617731347365 19.983773134736502 20.9087731347365
27.7527731347365 24.8817731347365 15.6937731347365
24.3977731347365 6.1197731347365 5.645680595790495
15.6867731347365 9.922226865263504 11.7177731347365
29.0363194042095 14.498773134736501 0.17268059579049577
9.4467731347365 6.888226865263498 22.404319404209502
16.6032268652635 1.376773134736501 28.5633194042095
13.507226865263497 13.433319404209502 6.3147731347365
20.081226865263496 2.0612268652634995 1.0352268652635033
11.226680595790498 24.7937731347365 7.252134326317503
18.9152268652635 1.1381343263175125 11.5047731347365
26.495773134736503 26.7902268652635 26.297773134736502
25.553226865263504 15.400680595790504 12.9657731347365
0.3822268652634975 24.434773134736503 13.3966805957905
27.897226865263498 22.1567731347365 18.827680595790497
20.9967731347365 31.5603194042095 21.2933194042095
1.1412268652634978 11.324680595790497 4.202680595790497
0.3952268652635027 17.038226865263503 19.16668059579051
15.013680595790504 20.9632268652635 17.3867731347365
7.937226865263504 6.511773134736501 3.974319404209499
27.7863194042095 27.3547731347365 27.427865673682504
5.675680595790496 31.8997731347365 26.235226865263506
27.7163194042095 14.799773134736501 25.697226865263495
1.495226865263497 26.0338656736825 5.5487731347365
24.6497731347365 20.1517731347365 28.217226865263505
1.4417731347365006 26.646226865263493 14.9727731347365
9.1507731347365 19.1466805957905 22.4182268652635
19.4632268652635 16.399226865263493 14.514226865263502
14.118319404209497 29.8507731347365 27.4482268652635
1.6947731347365007 24.976226865263506 4.505773134736501
26.364226865263497 0.8217731347364996 4.6462268652635
29.2767731347365 2.0992268652634962 1.0972268652635009
0.7132268652635005 8.074226865263505 28.929226865263495
17.0527731347365 7.867226865263497 0.671226865263499
8.336226865263498 15.6697731347365 30.745226865263497
7.440226865263504 8.674226865263499 17.568226865263505
15.2532268652635 8.936773134736502 23.393226865263493
28.2013194042095 24.5517731347365 20.749226865263502
13.061134326317514 25.7012268652635 22.745226865263497
4.603226865263501 31.9247731347365 22.1957731347365
21.745226865263497 24.468226865263496 26.9872268652635
7.613773134736499 14.6797731347365 30.6843194042095
29.3967731347365 17.0606805957905 7.0297731347365
22.8322268652635 5.415680595790505 5.7866805957905
13.1203194042095 7.1556805957905 19.2957731347365
21.2293194042095 17.7737731347365 10.5276805957905
0.6072268652634989 9.5152268652635 30.623773134736503
22.2313194042095 8.993319404209497 11.5017731347365
27.9577731347365 22.6987731347365 5.7217731347365
12.285226865263503 5.908226865263501 12.3517731347365
1.833226865263498 19.964226865263505 11.684226865263504
30.0897731347365 11.4077731347365 10.2857731347365
14.3823194042095 18.0527731347365 4.218680595790502
9.1582268652635 8.404226865263503 24.883226865263502
18.5207731347365 13.273226865263503 9.6917731347365
22.3507731347365 7.3622268652635015 11.959773134736501
24.5863194042095 5.8087731347365 30.358226865263497
11.124226865263502 18.170226865263494 21.3467731347365
15.5707731347365 29.7867731347365 22.4677731347365
17.178226865263504 31.9147731347365 29.9427731347365
13.581226865263496 27.5717731347365 14.7477731347365
3.3467731347365 25.5953194042095 23.864773134736502
28.010226865263498 22.747226865263507 2.336319404209501
0.3562268652635012 28.245773134736503 11.0547731347365
8.2277731347365 14.967226865263498 16.174319404209502
3.0387731347365 4.7047731347365005 31.3377731347365
15.0637731347365 20.547226865263504 26.741319404209502
25.3017731347365 1.7442268652634993 2.6697731347365004
3.944226865263495 14.949226865263505 21.733226865263497
6.7302268652634964 19.890226865263493 23.6742268652635
28.7717731347365 13.1027731347365 0.6726805957904958
5.643680595790499 20.268226865263493 1.1112268652634967
1.8822268652634975 12.5713194042095 25.1627731347365
4.7742268652635005 2.097319404209504 17.7407731347365
2.1007731347364995 11.291226865263503 24.517226865263503
0.7512268652634972 4.3812268652635 22.724773134736502
22.7312268652635 17.0037731347365 31.5147731347365
16.0957731347365 25.2012268652635 12.938226865263495
6.8817731347365 22.5247731347365 29.4473194042095
26.7163194042095 31.183773134736498 24.8867731347365
9.927773134736501 9.9467731347365 11.0277731347365
18.7967731347365 15.764773134736501 25.177773134736498
16.151226865263503 22.8197731347365 26.8687731347365
2.485319404209502 28.494773134736498 10.5897731347365
11.932226865263495 30.0987731347365 4.392773134736501
10.229319404209502 31.2753194042095 29.9127731347365
5.3552268652634964 20.157226865263503 2.5726805957905015
13.538680595790495 28.2597731347365 31.703319404209502
3.8932268652635003 12.8467731347365 2.3202268652635
5.202226865263505 5.062680595790496 31.733773134736502
12.1582268652635 22.396226865263493 2.9772268652634963
17.5533194042095 6.4847731347365 2.1507731347365002
2.5797731347365005 24.5577731347365 21.8597731347365
26.7227731347365 8.0257731347365 19.3917731347365
6.537226865263499 1.7097731347364995 2.8457731347365005
4.824226865263505 28.8172268652635 32.119773134736505
16.8157731347365 12.9647731347365 16.64268059579051
6.208680595790497 9.6522268652635 28.029226865263503
9.859226865263501 15.2727731347365 3.6802268652634993
12.9287731347365 23.4907731347365 30.4207731347365
16.4283194042095 27.268226865263493 12.4176805957905
18.7877731347365 13.215226865263496 0.7612268652635024
19.872226865263507 29.7463194042095 31.9557731347365
28.8713194042095 27.928773134736502 9.0582268652635
18.543680595790505 25.190226865263504 12.9107731347365
30.9542268652635 28.7837731347365 21.1497731347365
30.9757731347365 10.709226865263496 30.8917731347365
22.739226865263497 23.344680595790507 27.710865673682505
3.9847731347365 14.6826805957905 15.681134326317505
10.270773134736501 22.4417731347365 6.2433194042094975
30.429226865263495 9.9907731347365 26.935226865263495
12.861134326317512 25.1577731347365 16.7477731347365
4.434226865263504 13.110773134736501 15.760680595790504
13.676226865263494 0.8483194042095015 25.0883194042095
29.6827731347365 0.4526805957904969 28.3537731347365
1.6186805957904937 21.5967731347365 17.9157731347365
23.178773134736502 21.0047731347365 21.709226865263496
2.7302268652634964 11.6737731347365 21.4987731347365
23.7347731347365 18.7547731347365 22.2207731347365
32.1453194042095 17.3017731347365 32.0183194042095
31.9717731347365 5.803773134736501 28.5317731347365
10.700773134736501 9.9897731347365 8.6312268652635
14.2857731347365 4.909773134736501 12.1517731347365
23.3677731347365 15.7257731347365 4.8226805957905015
3.206773134736501 11.4422268652635 11.5517731347365
1.4737731347365006 25.656680595790505 6.111680595790503
8.5057731347365 8.171226865263499 18.3577731347365
2.552226865263499 9.553226865263504 30.042226865263494
6.802226865263499 20.483773134736502 2.178226865263504
22.888226865263498 2.8282268652634954 29.2667731347365
25.566226865263495 16.510226865263498 10.9867731347365
10.127226865263502 7.895773134736499 0.44277313473650004
4.597226865263501 3.5667731347365006 13.629226865263497
6.268680595790499 22.7957731347365 1.3247731347364997
7.434680595790496 4.659773134736501 11.763226865263498
10.049773134736501 15.092226865263498 30.0257731347365
31.3257731347365 21.5533194042095 0.9152268652634987
23.7907731347365 15.8217731347365 31.6737731347365
17.426226865263494 17.0687731347365 2.5797731347365005
0.43777313473650104 3.3207731347365 31.3493194042095
9.965773134736502 25.6047731347365 11.1287731347365
32.120773134736496 29.337319404209502 21.3737731347365
29.776226865263503 29.4572268652635 1.485226865263499
13.923226865263501 16.101226865263506 11.995773134736499
22.7023194042095 5.7977731347365005 8.0927731347365
11.3047731347365 29.6832268652635 27.1187731347365
31.7287731347365 12.419226865263504 15.9627731347365
1.4246805957905053 23.5237731347365 2.052134326317514
12.712226865263496 29.1487731347365 22.685226865263495
0.45168059579049213 6.647226865263498 15.264226865263502
25.3537731347365 23.0882268652635 0.8156805957904965
26.634226865263493 0.6411343263175127 30.2173194042095
12.019680595790504 28.375226865263507 22.989773134736502
7.508226865263502 25.348226865263506 19.8067731347365
23.4587731347365 31.7377731347365 22.0577731347365
17.9983194042095 31.177773134736498 29.651319404209502
8.160226865263503 14.020226865263503 6.2957731347365
21.0762268652635 17.226680595790498 12.416226865263503
7.601226865263499 11.939680595790506 19.384226865263493
10.5977731347365 11.1877731347365 10.740226865263502
10.6877731347365 20.614773134736502 2.2376805957904935
2.763680595790504 11.202226865263505 3.2702268652635027
0.6166805957904984 16.1963194042095 12.0912268652635
3.9166805957904955 20.3213194042095 16.8677731347365
19.8727731347365 27.607865673682497 4.7042268652635
23.3597731347365 13.0882268652635 0.9207731347364998
7.628680595790499 3.0527731347364995 29.0977731347365
17.1737731347365 1.8387731347365008 23.639226865263502
6.3727731347365 19.720226865263506 22.711226865263505
11.228226865263501 19.4057731347365 19.919226865263504
16.667226865263494 23.8472268652635 23.1337731347365
4.259680595790499 1.2882268652635034 18.1933194042095
28.0927731347365 16.2923194042095 26.565773134736503
18.513865673682503 12.6053194042095 25.0817731347365
0.10777313473650096 19.901226865263503 12.4317731347365
20.029226865263503 30.2163194042095 22.41068059579051
14.081773134736501 12.3817731347365 23.4718656736825
1.1447731347365 24.2693194042095 4.2147731347365
8.892773134736501 2.8862268652635024 27.9067731347365
17.077226865263505 1.0337731347365011 27.512226865263493
28.7637731347365 16.1712268652635 6.069680595790501
1.9706805957904976 31.4077731347365 5.3887731347365
20.9317731347365 0.9012268652635029 26.703226865263495
1.343226865263496 16.9797731347365 2.0503194042094997
25.1797731347365 6.351680595790498 2.447773134736501
22.2207731347365 27.272226865263498 5.922226865263504
14.340226865263496 11.5067731347365 3.7032268652634954
24.8807731347365 12.465226865263496 25.6527731347365
21.3973194042095 31.660773134736502 21.610319404209502
30.5267731347365 21.1177731347365 12.0257731347365
3.6196805957904985 25.8562268652635 7.3697731347365
1.6947731347365007 25.1967731347365 15.5287731347365
13.2917731347365 16.5447731347365 23.2257731347365
4.286226865263501 6.649773134736501 16.6657731347365
18.0777731347365 15.010680595790504 0.9102268652635033
3.931773134736501 20.5867731347365 26.113226865263506
11.1287731347365 4.8312268652634955 4.7817731347365005
7.998226865263497 7.401226865263503 17.593226865263496
11.1552268652635 4.998773134736501 13.5747731347365
22.345680595790498 21.9307731347365 0.6287731347365
9.9387731347365 28.6217731347365 4.493134326317502
13.459773134736501 18.4337731347365 19.286226865263494
24.9687731347365 31.1933194042095 22.854226865263506
21.3207731347365 30.363226865263506 9.8632268652635
8.462680595790502 19.6772268652635 8.5127731347365
16.751226865263497 10.050226865263504 8.447226865263495
6.1637731347365 25.249226865263502 12.132680595790504
25.389319404209502 18.3797731347365 14.846226865263496
23.9147731347365 2.860680595790498 26.746411943155493
31.3657731347365 17.6857731347365 21.547226865263504
11.7592268652635 29.2997731347365 32.0492268652635
26.800773134736502 20.371226865263502 13.238680595790498
9.269226865263498 12.427773134736501 19.6763194042095
21.052680595790505 4.683226865263499 9.0242268652635
2.8382268652635005 29.983773134736502 0.5162268652634978
4.638226865263498 4.625680595790499 31.0833194042095
4.451680595790492 6.715680595790502 5.423226865263501
2.846226865263496 10.8077731347365 2.3437731347365
32.0998656736825 18.0317731347365 12.901226865263503
31.186773134736498 18.670226865263494 4.738226865263499
17.9657731347365 12.144226865263498 27.4497731347365
3.338773134736501 26.514226865263502 15.6047731347365
17.5187731347365 9.5837731347365 8.9482268652635
31.720226865263506 16.0623194042095 10.519134326317513
29.111226865263497 11.3632268652635 10.0897731347365
30.676226865263494 9.5152268652635 25.8827731347365
1.1617731347364995 25.092226865263505 15.727588056844496
6.5797731347365005 12.2977731347365 11.5977731347365
19.021226865263493 23.3657731347365 7.822773134736501
3.2042268652635 5.2042268652635 30.7057731347365
19.3837731347365 30.1297731347365 0.1172268652634969
28.1383194042095 2.4947731347364996 32.0257731347365
22.795226865263494 10.0732268652635 30.9647731347365
14.335680595790492 7.7947731347365 20.3052268652635
13.0057731347365 19.6886805957905 10.839226865263498
11.8232268652635 5.902773134736501 11.796226865263499
6.3322268652635 30.004680595790504 17.5617731347365
17.3767731347365 26.2463194042095 18.849773134736502
8.001773134736501 4.2697731347365 12.1287731347365
5.741680595790498 30.026226865263503 15.723680595790498
1.1347731347365002 14.272226865263498 28.075226865263495
3.721226865263496 6.452226865263505 9.240226865263502
17.1952268652635 13.7557731347365 21.3297731347365
0.7842268652634985 12.578773134736501 17.236226865263497
3.8427731347365004 12.5537731347365 22.5612268652635
4.718680595790502 26.4233194042095 10.677773134736501
6.453226865263495 3.407226865263503 17.845226865263506
1.0217731347365007 32.075226865263495 6.463680595790493
20.6772268652635 15.5537731347365 23.567680595790506
23.263226865263498 14.9257731347365 4.6967731347365
27.4097731347365 7.963773134736501 30.1037731347365
24.294226865263504 14.552773134736501 11.052773134736501
9.4602268652635 5.1526805957905 6.7017731347365
4.8277731347365 1.5856805957904925 17.8037731347365
25.1497731347365 31.4422268652635 5.836680595790497
5.897680595790504 1.8987731347364996 12.046680595790505
8.547680595790496 24.0047731347365 30.3532268652635
5.175773134736501 8.1997731347365 7.8996805957905
8.264773134736501 20.4147731347365 21.1682268652635
22.4617731347365 19.291773134736502 19.238226865263506
20.782226865263503 15.294226865263504 13.102226865263496
25.2162268652635 18.6913194042095 27.7177731347365
31.488319404209502 6.029226865263503 30.420226865263494
5.300226865263504 4.148226865263503 32.0737731347365
5.242680595790503 20.3097731347365 29.7317731347365
0.5922268652634983 5.001226865263497 23.1297731347365
29.898319404209502 8.560226865263495 9.0727731347365
20.708226865263505 7.553226865263504 17.5287731347365
18.702226865263505 23.231588056844515 9.968226865263496
5.820680595790506 3.1967731347364996 17.3187731347365
1.421226865263499 26.3987731347365 14.709226865263496
26.851226865263506 23.077680595790497 1.6137731347364994
18.494226865263506 16.4007731347365 13.047226865263504
10.3077731347365 24.831680595790502 16.4087731347365
10.975226865263501 13.0002268652635 10.7377731347365
26.515226865263493 0.790680595790505 30.2747731347365
30.3063194042095 18.3877731347365 21.452226865263505
16.584226865263496 3.1622268652634986 13.4897731347365
20.301226865263494 19.4903194042095 21.8547731347365
15.0002268652635 27.564773134736498 23.5277731347365
16.880226865263502 1.8426805957904975 28.315773134736503
24.2597731347365 27.7407731347365 31.526319404209502
21.5977731347365 20.729226865263506 21.467680595790497
17.1562268652635 28.052319404209502 4.032319404209499
25.605226865263496 20.623865673682502 18.013226865263498
18.680319404209502 2.123226865263497 2.302226865263499
24.9362268652635 15.0587731347365 14.0637731347365
1.5162268652634978 15.376226865263497 18.295226865263494
23.360226865263506 18.694226865263495 29.7372268652635
24.7597731347365 22.7543194042095 13.748226865263497
28.687773134736503 1.0992268652634962 2.091773134736501
10.0942268652635 21.766226865263498 6.5317731347365005
1.0506805957904959 14.607226865263499 25.623226865263497
9.6327731347365 16.1227731347365 1.1012268652634987
12.661226865263501 21.095226865263506 4.957773134736501
11.7667731347365 12.264226865263502 3.7262268652634987
24.244773134736498 8.0557731347365 2.0032268652634997
3.9102268652635033 29.622773134736498 2.479773134736501
29.9457731347365 31.177773134736498 28.0687731347365
10.9807731347365 28.497319404209502 21.4597731347365
8.206680595790502 15.357680595790498 30.4272268652635
28.5492268652635 16.9877731347365 26.6092268652635
19.9357731347365 0.6836805957905057 7.400680595790504
30.7697731347365 9.304319404209497 29.5857731347365
2.9063194042095013 3.3597731347365 29.7127731347365
31.041773134736502 31.779319404209502 27.5867731347365
2.1082268652634966 24.2087731347365 2.0067731347365
25.995680595790503 17.5013194042095 14.621319404209498
9.0032268652635 28.808773134736498 21.7083194042095
25.605226865263496 21.5327731347365 14.447226865263495
19.887226865263493 29.914226865263494 2.5537731347365007
7.4067731347365005 20.0283194042095 22.7867731347365
20.3817731347365 12.8457731347365 5.1417731347365
14.040680595790505 25.6673194042095 2.9542268652635
28.9572268652635 15.4007731347365 1.017773134736501
12.6796805957905 9.901773134736501 30.986773134736502
1.8662268652634992 0.6822268652634946 5.1637731347365
25.4357731347365 6.1507731347365 30.1122268652635
26.3357731347365 21.959680595790502 0.16022686526350327
31.620865673682502 3.792226865263501 0.6581343263175086
7.777773134736501 16.123226865263497 16.3172268652635
14.5887731347365 6.8182268652635045 14.459773134736501
31.4392268652635 29.0917731347365 28.5167731347365
5.626226865263497 8.872680595790499 17.410226865263503
8.005226865263502 17.6677731347365 13.418226865263499
8.4007731347365 29.294226865263504 29.8917731347365
5.886773134736501 21.3327731347365 3.5572268652634946
6.397226865263498 25.078226865263495 29.2957731347365
11.840226865263496 11.012319404209503 2.2902268652634987
22.1417731347365 7.5062268652635 22.1203194042095
16.285226865263503 23.3317731347365 25.1823194042095
24.2192268652635 21.022226865263498 6.451680595790492
17.2637731347365 8.651226865263503 19.9272268652635
12.0927731347365 0.290680595790505 8.2467731347365
14.415226865263499 26.5762268652635 21.446226865263505
5.665773134736501 29.125319404209502 18.6807731347365
25.1957731347365 1.955680595790497 15.142226865263503
27.2297731347365 2.1206805957905033 15.2337731347365
1.5476805957904958 8.8277731347365 31.233773134736502
27.3232268652635 7.2866805957905 29.375226865263507
22.2627731347365 21.2373194042095 20.622226865263507
8.622773134736502 19.4467731347365 15.8936805957905
18.2387731347365 10.233226865263497 7.613226865263499
28.9123194042095 21.1983194042095 14.1132268652635
27.4812268652635 16.9147731347365 5.946226865263505
13.997134326317507 23.007226865263497 22.3112268652635
6.4512268652635 9.004226865263497 29.476680595790498
24.0852268652635 31.601680595790498 13.731226865263501
13.3902268652635 20.3592268652635 18.8593194042095
31.375773134736498 28.495773134736503 30.2927731347365
10.7147731347365 2.8527731347365 27.8337731347365
14.775319404209501 6.5002268652635 20.3537731347365
0.7092268652634957 26.1293194042095 6.5127731347365
18.035773134736502 23.253773134736498 6.6997731347365
29.0987731347365 10.1847731347365 31.0947731347365
16.476226865263506 2.0762268652635 26.933319404209502
2.1602268652635033 10.600680595790493 3.3082268652634994
9.180680595790506 30.778865673682503 12.8427731347365
23.846226865263496 21.211226865263505 7.676319404209497
31.3636805957905 21.1177731347365 11.6277731347365
19.818680595790497 29.4637731347365 10.353226865263501
20.137226865263493 1.9316805957904961 27.6062268652635
31.152226865263493 16.8687731347365 21.4797731347365
5.421773134736501 6.472226865263501 6.100226865263501
8.174226865263499 20.4773194042095 13.1607731347365
20.255226865263502 30.265226865263493 11.5972268652635
30.9587731347365 20.2117731347365 12.1967731347365
0.6207731347365009 23.4523194042095 31.9187731347365
12.113773134736501 11.7592268652635 17.621226865263502
7.618226865263502 4.6807731347365 15.063226865263495
9.004226865263497 15.086319404209501 31.9553194042095
3.8922268652635026 1.3682268652635017 5.648680595790495
31.052319404209502 16.489226865263497 11.055773134736501
23.7417731347365 21.392226865263503 2.7507731347365
23.624226865263502 30.8107731347365 29.3467731347365
9.523773134736501 16.0903194042095 28.9332268652635
15.5707731347365 23.858773134736502 24.2837731347365
24.183773134736498 2.6012268652634987 13.787680595790505
13.0732268652635 13.751226865263497 3.267773134736501
9.714319404209501 10.295226865263501 15.714226865263498
29.416226865263503 16.450319404209502 6.4292268652634945
9.936773134736502 8.291680595790496 8.6847731347365
12.7956805957905 31.4387731347365 9.145226865263503
3.939680595790506 8.715226865263496 24.1118656736825
16.2037731347365 14.0227731347365 19.7687731347365
11.030319404209504 13.794226865263504 10.605226865263496
14.055773134736501 27.7207731347365 23.4296805957905
20.8697731347365 21.621226865263502 19.7973194042095
6.529226865263503 10.275226865263498 12.334680595790502
13.1757731347365 14.142773134736501 6.172226865263504
20.0777731347365 11.007226865263497 21.7747731347365
19.2633194042095 17.150226865263498 12.561680595790506
29.6303194042095 30.671319404209502 10.7787731347365
29.308773134736498 31.7373194042095 4.904226865263503
