9.3046805957905 7.329680595790492 31.685226865263495
28.8103194042095 27.4637731347365 14.456773134736501
12.148226865263503 23.8807731347365 7.446226865263505
7.0457731347365 29.9797731347365 4.7562268652635
28.059773134736503 12.592680595790497 25.6937731347365
9.606226865263501 12.123680595790503 17.7897731347365
19.1313194042095 2.5472268652635037 17.4917731347365
14.1637731347365 28.9787731347365 3.6702268652635013
2.8012268652634944 4.218680595790502 2.9946805957904985
2.444226865263495 11.340773134736502 22.7567731347365
8.5002268652635 23.6617731347365 12.749226865263502
21.0347731347365 14.0107731347365 18.8697731347365
19.2842268652635 0.8726805957904986 14.4997731347365
24.645319404209502 29.093319404209502 22.611226865263497
8.653680595790505 25.9182268652635 9.0477731347365
0.9292268652634945 18.7847731347365 4.547226865263504
19.8227731347365 24.039226865263494 20.023226865263503
19.9313194042095 0.9196805957904957 19.0037731347365
25.808773134736498 23.4023194042095 10.075319404209498
0.7746805957904996 2.773226865263503 24.591680595790507
21.140226865263493 5.947226865263495 9.061134326317514
23.6197731347365 24.477226865263496 23.1647731347365
11.4923194042095 25.250773134736498 5.002680595790494
19.6527731347365 1.053226865263504 15.4317731347365
12.7442268652635 5.726773134736501 14.1887731347365
5.5062268652635 15.970226865263506 16.374226865263502
31.6797731347365 11.918773134736501 24.257226865263497
6.723773134736501 20.9687731347365 17.910226865263503
7.269680595790504 12.2562268652635 1.1322268652634975
16.924680595790505 14.3527731347365 10.511226865263502
24.0757731347365 1.1927731347365 25.5833194042095
23.474773134736502 23.7517731347365 21.9017731347365
16.952680595790497 27.2313194042095 22.0792268652635
12.714319404209501 31.6157731347365 32.0597731347365
25.7363194042095 10.863680595790498 25.051226865263494
20.1213194042095 31.641226865263498 11.697226865263495
29.8397731347365 15.975680595790507 18.8743194042095
8.212226865263496 29.462226865263496 5.038680595790495
28.712319404209502 2.333226865263498 28.4687731347365
3.4062268652634984 4.683226865263499 1.6607731347365
27.4842268652635 27.5653194042095 18.5767731347365
12.141226865263498 20.1577731347365 13.804226865263495
9.681680595790496 14.6406805957905 26.3687731347365
24.2937731347365 6.758226865263502 26.7827731347365
31.477773134736502 3.766226865263498 24.190773134736503
31.520319404209502 25.244226865263506 25.683319404209502
13.46813432631751 18.017226865263503 28.191226865263495
21.7252268652635 5.7472268652634995 20.0407731347365
23.2663194042095 23.0837731347365 11.4512268652635
12.9397731347365 30.8717731347365 22.6567731347365
13.6327731347365 30.3657731347365 3.0237731347364996
28.1243194042095 13.993226865263502 29.2377731347365
18.0943194042095 0.3222268652634952 25.0287731347365
28.0157731347365 21.986226865263497 9.316226865263495
26.8307731347365 24.6547731347365 28.2647731347365
3.9177731347364997 6.651226865263503 13.257226865263497
0.6736805957905005 22.3833194042095 13.1377731347365
28.980226865263496 28.0237731347365 8.999319404209498
19.6287731347365 12.3087731347365 6.340680595790502
24.671319404209502 17.9997731347365 24.686773134736498
18.0547731347365 24.566226865263495 17.8263194042095
8.9082268652635 26.337226865263496 9.462680595790502
4.8777731347365005 5.948680595790506 30.4033194042095
3.9222268652635037 26.1587731347365 16.070680595790506
17.001226865263497 26.4877731347365 23.360319404209502
20.515226865263493 7.5072268652634975 28.395319404209502
10.8722268652635 23.8667731347365 20.3347731347365
9.607319404209502 22.236680595790503 19.988319404209502
27.761865673682507 30.501773134736503 21.741319404209502
28.500226865263507 11.957319404209503 25.2777731347365
2.559226865263504 13.712226865263496 21.154226865263503
13.168773134736501 22.595226865263506 8.235773134736501
22.0257731347365 3.7062268652634955 22.3907731347365
21.7233194042095 26.771226865263493 4.708226865263498
10.7562268652635 11.349680595790502 6.659773134736501
13.395319404209499 6.723680595790498 16.81613432631751
11.714226865263498 24.2877731347365 9.2557731347365
22.6813194042095 23.655226865263494 20.0432268652635
31.426226865263494 3.094773134736501 24.126773134736503
28.047680595790496 12.766865673682503 25.093226865263496
14.828226865263495 12.496226865263502 15.1892268652635
11.2222268652635 2.3267731347365004 26.7167731347365
11.535226865263503 22.476226865263506 10.288226865263503
9.438226865263495 23.9903194042095 23.0087731347365
2.5082268652635022 7.468226865263496 28.640226865263493
3.299226865263499 27.055773134736498 5.9687731347365
19.1862268652635 3.2386805957904983 16.9767731347365
30.741773134736498 9.474680595790502 14.656226865263498
31.7803194042095 8.799773134736501 13.1877731347365
19.1993194042095 31.117773134736503 16.4032268652635
19.804226865263495 14.5912268652635 3.295134326317509
0.6366805957904944 19.5147731347365 23.4997731347365
30.997773134736498 5.742680595790503 31.046319404209502
1.7202268652634984 19.173226865263494 16.0803194042095
0.7582268652635022 30.4737731347365 27.3473194042095
20.4707731347365 0.6297731347364994 30.9893194042095
16.2907731347365 26.181680595790496 23.432226865263495
20.756226865263493 5.6957731347365 4.5542268652634945
12.870226865263497 4.599226865263496 20.093226865263496
10.4687731347365 24.2997731347365 3.1777731347364995
8.892680595790495 12.609226865263501 5.0246805957905
29.206319404209502 27.8387731347365 14.1007731347365
18.241226865263506 2.3932268652635003 29.530226865263494
4.182680595790501 6.718680595790502 26.1947731347365
2.6112268652634967 25.051226865263494 26.0546805957905
14.818226865263505 13.1827731347365 11.636680595790494
26.2107731347365 1.5062268652634998 26.808319404209502
14.395226865263503 27.126226865263497 14.610319404209502
1.961226865263498 16.1557731347365 29.1243194042095
1.9047731347364998 6.3507731347364995 7.735680595790498
0.9367731347364998 1.0232268652635028 27.663773134736502
30.2587731347365 13.0972268652635 27.075226865263495
22.044680595790496 6.810680595790501 10.340773134736502
13.014226865263502 19.992226865263497 20.8877731347365
28.940773134736503 24.7957731347365 22.4557731347365
15.2247731347365 10.7237731347365 17.5477731347365
27.9053194042095 29.619773134736498 14.575680595790502
17.810226865263495 23.509226865263493 17.6827731347365
16.019226865263498 18.631226865263493 23.111773134736502
14.8667731347365 8.8142268652635 32.0427731347365
23.305319404209502 9.6347731347365 27.9087731347365
18.5853194042095 21.3353194042095 16.6857731347365
27.638226865263498 7.6592268652634985 24.354226865263506
27.065773134736503 4.5812268652634955 10.2682268652635
21.795226865263494 28.5623194042095 6.523226865263503
17.183319404209502 2.6052268652634964 30.6963194042095
26.718226865263496 13.1132268652635 27.9963194042095
3.1422268652635026 9.4362268652635 3.121226865263502
21.255226865263502 29.1577731347365 3.3662268652634992
23.480226865263496 17.6197731347365 30.8347731347365
16.199226865263505 12.3907731347365 12.8442268652635
26.2797731347365 24.4177731347365 10.827226865263505
16.7407731347365 18.7907731347365 6.865319404209497
10.0977731347365 22.3597731347365 21.2167731347365
29.4293194042095 26.587226865263496 29.307226865263495
13.8107731347365 10.932226865263495 2.086226865263498
0.772226865263498 20.2267731347365 27.976226865263506
17.9383194042095 30.7957731347365 10.6282268652635
20.9237731347365 27.7053194042095 6.095680595790498
21.8427731347365 7.052680595790505 29.349226865263496
29.714226865263505 26.0943194042095 27.822226865263495
27.3747731347365 21.819226865263495 6.808226865263499
31.0732268652635 28.550773134736502 28.1577731347365
11.549226865263499 18.7487731347365 0.4391343263175145
31.919226865263504 31.1593194042095 27.233226865263497
22.6263194042095 3.8256805957905016 9.1237731347365
26.055773134736498 28.1507731347365 31.488319404209502
5.776226865263503 16.2453194042095 1.7266805957904978
29.9873194042095 27.1673194042095 6.833680595790497
7.4146805957905 9.8777731347365 5.697226865263495
16.602773134736502 25.992226865263497 30.997226865263507
30.661226865263494 30.171319404209502 18.400226865263498
29.803773134736502 29.6533194042095 9.3587731347365
6.6217731347365 4.217226865263498 14.166226865263503
25.138226865263498 3.4276805957905054 1.0157731347365004
2.7362268652634967 29.9587731347365 22.895226865263503
24.7607731347365 8.124226865263502 13.561680595790506
3.5756805957905016 30.2423194042095 13.153226865263498
8.2487731347365 20.2447731347365 7.969226865263501
8.8867731347365 31.0337731347365 27.7803194042095
13.813680595790501 24.9062268652635 15.5097731347365
4.549226865263499 0.5162268652634978 6.621226865263502
20.0552268652635 14.465680595790502 23.77968059579051
22.024226865263493 23.4122268652635 18.6887731347365
25.968319404209502 22.893226865263493 20.917226865263494
30.2347731347365 29.5057731347365 17.3352268652635
7.553773134736501 29.855226865263496 6.5767731347365
11.051226865263494 6.0612268652634995 29.875319404209502
9.587680595790502 25.363773134736498 14.1616805957905
0.8402268652634959 17.619226865263506 2.9297731347365
27.982226865263506 23.8657731347365 6.344680595790493
23.3202268652635 16.4757731347365 4.354680595790498
27.3607731347365 22.7012268652635 20.2707731347365
2.1387731347364998 24.0437731347365 0.9802268652634964
21.692680595790506 13.029226865263503 7.8857731347365
2.2786805957905045 28.3837731347365 25.3813194042095
21.2517731347365 29.891226865263498 5.614226865263497
1.036226865263501 11.607773134736501 13.1783194042095
24.431865673682495 21.620680595790503 7.768319404209503
9.825226865263495 13.9477731347365 23.238319404209502
3.9787731347364996 5.894680595790504 15.022226865263498
6.227680595790503 11.3227731347365 19.360865673682497
13.845226865263498 26.2776805957905 25.130226865263502
22.866319404209502 26.377226865263502 15.7543194042095
14.34286567368251 23.6917731347365 31.682226865263495
18.4147731347365 2.465226865263496 18.0762268652635
16.13968059579051 5.684226865263504 31.994773134736498
12.446226865263505 2.7657731347365004 27.134226865263493
7.7716805957904995 23.864773134736502 17.622226865263507
20.377226865263502 5.658773134736501 17.1967731347365
26.839226865263505 14.1997731347365 28.700226865263495
9.2507731347365 7.401319404209499 28.142865673682508
16.569226865263495 15.2472268652635 20.314773134736498
9.5443194042095 7.220319404209501 5.056773134736501
25.6077731347365 32.074319404209504 25.4763194042095
20.2967731347365 30.0433194042095 12.4897731347365
12.354319404209502 12.152319404209504 32.0247731347365
29.2967731347365 31.8412268652635 17.444226865263495
31.760226865263498 14.962226865263496 18.6092268652635
26.498773134736503 26.9092268652635 30.0907731347365
17.381226865263493 21.2687731347365 6.2567731347365
26.2773194042095 31.8397731347365 26.0342268652635
8.118226865263502 14.0267731347365 16.4537731347365
26.9152268652635 4.271773134736501 14.882226865263497
9.274773134736499 5.236680595790503 13.5546805957905
17.619226865263506 16.6007731347365 20.5337731347365
14.666226865263503 26.4717731347365 25.459226865263496
22.568680595790497 23.697226865263495 18.854226865263506
6.2176805957904975 14.113773134736501 6.975226865263501
28.9357731347365 16.7387731347365 2.0156805957904993
8.764773134736501 3.9512268652635 7.405773134736501
2.4502268652634953 16.3202268652635 0.7047731347365005
18.5687731347365 1.6282268652634997 23.0737731347365
4.4732268652634986 25.845226865263506 25.491226865263506
30.689773134736498 12.099680595790502 2.1982268652635
17.7776805957905 31.7527731347365 14.202226865263505
3.209680595790502 15.022680595790504 6.958226865263498
14.904226865263503 10.212680595790502 19.544226865263504
21.1263194042095 7.648680595790495 4.1982268652635
26.7583194042095 27.1123194042095 18.5907731347365
20.0767731347365 27.440773134736503 6.5822268652635
28.402226865263493 14.136319404209498 12.0242268652635
17.9387731347365 2.3012268652634944 30.1467731347365
25.2077731347365 14.2497731347365 20.2167731347365
18.6557731347365 10.590773134736502 7.468680595790502
21.185226865263495 24.269226865263498 22.8003194042095
14.7247731347365 9.181226865263504 20.9667731347365
10.038680595790495 10.4077731347365 7.562773134736501
3.6792268652634945 9.114226865263497 30.2023194042095
8.538680595790495 10.2192268652635 8.443226865263505
25.992226865263497 24.300773134736502 30.613319404209502
23.081319404209502 25.9743194042095 25.492226865263497
21.4587731347365 30.8683194042095 13.2012268652635
29.123773134736503 17.8917731347365 2.6986805957905062
28.8553194042095 31.9877731347365 19.702226865263505
16.3437731347365 11.962773134736501 6.781226865263498
10.9747731347365 12.505319404209498 20.4413194042095
7.4117731347364995 28.710680595790507 15.6177731347365
3.2057731347365 17.7432268652635 25.7806805957905
6.235226865263499 15.090226865263496 10.3082268652635
22.15168059579051 17.317773134736502 20.2927731347365
23.3847731347365 24.4903194042095 31.819226865263495
25.1993194042095 22.5267731347365 28.1047731347365
16.498226865263497 21.426226865263494 7.3827731347364995
22.5797731347365 21.278680595790505 8.580226865263505
9.082680595790492 31.427773134736498 26.189773134736498
27.4547731347365 27.186773134736498 30.5937731347365
15.0387731347365 29.470865673682496 28.8943194042095
20.025680595790504 2.4512268652635 2.3407731347364997
3.9817731347364997 24.833680595790497 3.4772268652634963
16.0727731347365 10.5217731347365 7.6187731347365
10.0077731347365 4.1536805957905045 25.483226865263497
9.229680595790498 26.4923194042095 20.8457731347365
18.108226865263497 19.8197731347365 6.110773134736501
4.725226865263501 24.8562268652635 28.6987731347365
13.321680595790497 23.3203194042095 25.7863194042095
4.478226865263501 17.0477731347365 14.8322268652635
13.5657731347365 3.5272268652635006 20.2957731347365
22.479226865263506 24.581226865263496 25.6982268652635
23.193865673682495 24.071680595790497 13.563680595790501
7.686680595790506 20.0057731347365 27.315773134736503
15.657226865263503 32.1617731347365 12.857226865263499
3.3211343263175053 3.3237731347365003 9.650226865263498
19.3052268652635 14.3907731347365 26.8777731347365
2.3817731347365 29.628773134736498 22.059226865263504
16.4993194042095 2.3832268652635022 29.5247731347365
16.0567731347365 10.9057731347365 0.779226865263503
27.650226865263498 23.444226865263495 8.6192268652635
21.0522268652635 0.7882268652635034 26.1062268652635
23.4687731347365 11.090773134736502 25.8043194042095
1.4986805957905034 10.0193194042095 25.265134326317508
13.404680595790495 15.309773134736501 4.031680595790505
15.1667731347365 11.838773134736499 18.0337731347365
18.605773134736502 25.5853194042095 4.052319404209502
0.23322686526349656 29.325319404209502 3.5736805957905062
7.120680595790503 16.000226865263507 13.9677731347365
7.123226865263497 26.6652268652635 22.869226865263506
1.1592268652634985 10.837680595790502 1.6622268652634986
6.4092268652634985 21.4387731347365 16.6997731347365
7.2827731347365 3.7802268652635007 7.748226865263497
9.546680595790505 14.086226865263498 8.1802268652635
5.0412268652635035 5.898226865263503 1.256680595790499
14.9482268652635 21.8906805957905 13.770226865263503
2.7977731347365005 10.370226865263497 20.940226865263504
27.360226865263506 9.9327731347365 30.913773134736502
4.924226865263499 4.894226865263498 15.950680595790502
7.622680595790499 11.3867731347365 10.8097731347365
9.842226865263498 11.313226865263495 25.753773134736498
5.837226865263496 32.1557731347365 7.376773134736501
25.8447731347365 31.919773134736502 21.9842268652635
7.9026805957905 2.4427731347365 5.8307731347365
6.0412268652635035 23.849226865263496 20.916226865263503
4.328773134736501 25.4627731347365 6.769226865263498
15.8567731347365 9.315226865263504 30.0237731347365
3.8267731347365004 2.9162268652635035 30.9152268652635
26.4517731347365 3.0047731347364994 13.6552268652635
23.9583194042095 24.0377731347365 15.530773134736501
27.913226865263503 16.7902268652635 16.5283194042095
26.3936805957905 12.9942268652635 24.6083194042095
1.5643194042095026 10.6127731347365 4.8172268652635
19.8427731347365 27.878773134736498 20.2987731347365
8.451680595790492 29.5667731347365 13.510226865263498
19.7372268652635 6.995773134736501 13.5672268652635
13.1323194042095 13.785680595790495 0.45922686526349565
6.591773134736501 14.203773134736501 25.6353194042095
21.191226865263495 12.346319404209499 6.658773134736501
11.138226865263498 7.798226865263501 13.1947731347365
12.381680595790499 12.318226865263505 1.6357731347364997
10.3747731347365 27.0023194042095 18.1877731347365
12.361680595790503 2.0317731347365005 32.1613194042095
27.02668059579051 19.312226865263504 6.9837731347365
23.38968059579051 4.0002268652635 28.1053194042095
8.6887731347365 31.129226865263497 24.9467731347365
15.748226865263497 5.841773134736501 31.739773134736502
26.8177731347365 11.514226865263502 11.782134326317504
21.214226865263505 18.6982268652635 25.5683194042095
14.7857731347365 4.6327731347364995 21.1533194042095
19.5637731347365 11.5697731347365 6.458226865263498
29.7067731347365 6.982226865263499 22.0703194042095
1.3212268652635046 30.1317731347365 28.250226865263507
8.982226865263499 19.6107731347365 7.8823194042095
15.3167731347365 10.031226865263498 16.711226865263505
31.114226865263497 25.039226865263494 26.343226865263496
9.0057731347365 29.0407731347365 15.315226865263504
1.3173194042095027 27.9877731347365 26.3883194042095
9.488680595790498 22.0053194042095 26.4077731347365
15.0217731347365 13.551226865263494 2.3007731347365006
12.992226865263497 2.6462268652635004 22.7233194042095
26.1467731347365 31.553773134736502 23.8622268652635
7.2646805957904945 21.2222268652635 25.9233194042095
31.721226865263496 11.4817731347365 21.3197731347365
1.9927731347365008 28.6067731347365 20.7287731347365
10.9302268652635 20.5297731347365 21.0402268652635
31.1493194042095 12.526226865263503 28.3577731347365
22.420226865263494 13.7592268652635 18.4507731347365
17.970226865263506 19.4847731347365 5.780319404209504
4.199680595790497 2.123773134736501 21.9092268652635
31.9507731347365 13.0297731347365 24.5637731347365
19.2267731347365 3.0346805957905048 3.267773134736501
5.293226865263499 16.276226865263503 11.234319404209504
17.955134326317506 1.3982268652635028 21.7133194042095
23.349773134736502 5.194226865263495 6.3482268652634986
31.5533194042095 16.3837731347365 2.0256805957905044
16.096226865263496 19.926226865263494 5.420226865263501
13.6832268652635 16.997226865263507 21.6107731347365
23.955226865263505 18.0967731347365 3.674226865263499
17.256226865263493 0.5976805957904929 28.259226865263493
0.050773134736498804 8.7527731347365 14.087226865263496
20.8052268652635 0.45677313473650116 28.5337731347365
27.0517731347365 24.113319404209502 30.0882268652635
9.864134326317512 3.1528656736824985 0.20713432631751516
31.5487731347365 12.856680595790493 2.302226865263499
18.0007731347365 4.870773134736501 11.699226865263505
27.8022268652635 31.308773134736498 20.2072268652635
5.7806805957905 15.057226865263495 25.574226865263505
25.553773134736502 13.704680595790492 12.644680595790504
22.9063194042095 22.128773134736498 14.8077731347365
28.4647731347365 30.488773134736498 9.2132268652635
8.426226865263494 8.7802268652635 29.5517731347365
15.8227731347365 26.157226865263503 23.4297731347365
31.105226865263496 23.3507731347365 31.4247731347365
16.8666805957905 9.194226865263495 13.6897731347365
1.1902268652635044 18.2737731347365 10.3807731347365
31.4797731347365 32.0387731347365 18.5727731347365
17.4723194042095 30.587226865263496 31.131226865263493
14.9517731347365 25.1447731347365 7.3587731347365
22.2087731347365 5.868226865263502 12.404226865263503
14.7877731347365 5.001773134736501 1.6037731347364996
19.4493194042095 14.044226865263504 23.465226865263496
24.5063194042095 7.928773134736501 27.5277731347365
29.735865673682497 29.0977731347365 1.742226865263497
0.8152268652635044 29.432226865263495 23.7837731347365
6.505773134736501 16.766226865263498 16.8757731347365
22.2777731347365 22.757226865263497 9.3147731347365
4.691773134736501 25.8457731347365 6.734680595790493
20.224226865263496 25.6097731347365 24.9506805957905
7.7447731347365 10.8172268652635 17.078226865263495
23.5867731347365 9.4272268652635 13.6192268652635
4.771773134736501 4.4746805957905025 0.1317731347365001
6.363773134736499 22.314773134736498 26.747319404209502
3.0912268652635007 17.5807731347365 13.8877731347365
27.820680595790506 6.3782268652635 22.9297731347365
30.1592268652635 12.907226865263503 27.8137731347365
27.165680595790505 23.716680595790507 8.209773134736501
19.178226865263504 10.485773134736501 31.678226865263504
19.52668059579051 31.6507731347365 14.806226865263504
0.44222686526349975 2.126773134736501 25.0947731347365
9.5937731347365 10.347680595790493 6.754773134736499
5.3292268652635 23.130226865263502 10.031226865263498
27.3507731347365 29.2313194042095 1.154226865263503
26.0913194042095 1.405773134736501 28.310226865263495
6.4972268652634995 21.4692268652635 29.6772268652635
27.134226865263493 24.1532268652635 4.801226865263494
3.219773134736501 24.9443194042095 24.378773134736498
17.404226865263503 20.6587731347365 4.708680595790497
27.352226865263496 14.296226865263499 29.7988656736825
7.0996805957905025 12.4007731347365 23.214226865263505
16.2067731347365 11.4877731347365 2.117680595790503
24.7697731347365 13.8387731347365 26.9847731347365
7.0336805957905 14.011226865263502 22.563226865263495
0.2727731347365001 30.510865673682503 25.108680595790503
14.5987731347365 30.0747731347365 19.342226865263505
0.0067731347365018735 20.783226865263494 25.199226865263505
29.8593194042095 13.857680595790498 19.2347731347365
22.7827731347365 21.154226865263503 29.430773134736498
26.4597731347365 17.9032268652635 5.6277731347365005
26.6613194042095 30.8777731347365 20.0017731347365
24.1797731347365 14.5977731347365 17.899226865263493
31.789226865263494 30.9903194042095 31.1097731347365
16.7147731347365 1.8166805957905012 26.431865673682495
15.7457731347365 10.868226865263502 30.6737731347365
32.176226865263494 30.766226865263498 29.583226865263505
7.752226865263502 11.977226865263496 1.7707731347364994
22.0927731347365 23.7227731347365 8.809226865263504
22.392226865263503 25.76468059579051 4.822226865263495
2.8043194042094974 28.5297731347365 26.705865673682496
2.3016805957905007 31.5347731347365 26.742226865263497
3.5487731347365 2.168773134736501 0.8142268652634996
17.1037731347365 32.0087731347365 8.856226865263501
27.6277731347365 28.0703194042095 17.6002268652635
22.797773134736502 6.412680595790505 10.625319404209502
3.0476805957904958 24.756226865263493 0.5857731347365007
31.430773134736498 19.610680595790498 27.9233194042095
2.3987731347364996 4.0146805957904945 17.259226865263493
15.299226865263499 13.822680595790501 1.0583194042095023
3.1297731347364994 17.5672268652635 25.248773134736503
18.166226865263503 3.2221343263175157 29.90168059579051
29.3397731347365 5.703226865263495 30.314773134736498
7.911226865263501 26.376773134736503 12.3046805957905
23.991319404209502 25.617773134736503 8.789226865263501
20.5467731347365 25.525226865263498 19.7932268652635
26.4087731347365 12.9837731347365 27.217226865263505
7.589226865263498 23.172226865263504 0.8262268652635001
31.616226865263506 2.1092268652635013 19.364226865263497
30.5947731347365 19.4056805957905 8.9137731347365
0.2567731347365001 11.694319404209498 13.1977731347365
23.9473194042095 3.8527731347365 29.4447731347365
20.9537731347365 7.285680595790495 21.3437731347365
7.1052268652634964 1.749226865263502 5.572226865263495
31.0083194042095 14.6162268652635 19.65168059579051
3.907226865263503 14.1147731347365 6.795226865263501
21.989226865263497 27.394226865263498 4.344773134736501
26.991773134736498 10.904134326317504 12.254226865263497
11.7487731347365 23.3967731347365 18.258226865263502
30.003319404209503 5.553773134736501 0.19922686526350475
13.394226865263498 16.985319404209502 15.6342268652635
19.522226865263498 32.173226865263494 9.3437731347365
21.985226865263506 30.150226865263498 12.2247731347365
14.596226865263496 17.482226865263506 22.025226865263498
20.8153194042095 23.0497731347365 20.1583194042095
22.370226865263497 23.471226865263496 28.9497731347365
9.6317731347365 22.010226865263498 23.3502268652635
28.2432268652635 20.6032268652635 12.1952268652635
27.5887731347365 28.5882268652635 18.420226865263494
2.7842268652634985 19.7866805957905 13.47686567368251
1.066226865263495 30.3077731347365 4.3907731347365
9.2687731347365 29.6437731347365 15.144680595790504
30.3447731347365 19.9007731347365 27.1037731347365
0.2635880568444975 3.2643194042094983 24.9387731347365
14.545226865263501 19.663226865263503 7.080226865263505
14.0347731347365 3.857773134736501 26.374226865263502
31.0053194042095 31.0517731347365 0.41422686526350105
0.32422686526350475 26.1043194042095 10.7347731347365
3.165680595790505 6.365319404209497 23.7627731347365
21.3517731347365 25.799319404209502 18.3227731347365
0.08377313473650005 21.391226865263498 20.8087731347365
0.225226865263501 20.8547731347365 7.485226865263499
30.3237731347365 21.610226865263506 5.9937731347365
15.046226865263499 8.803226865263504 16.3297731347365
9.0552268652635 14.841773134736501 8.5773194042095
16.7527731347365 13.2407731347365 16.702226865263505
10.234134326317516 11.0152268652635 26.7283194042095
6.7577731347364995 9.555773134736501 9.755680595790494
7.931773134736501 13.202226865263505 9.3112268652635
30.5337731347365 13.185226865263495 14.4422268652635
2.2972268652635037 2.8902268652635 29.8837731347365
19.146226865263493 7.1646805957905 29.5077731347365
1.914226865263501 9.095226865263498 22.200226865263495
22.2013194042095 0.7152268652634959 15.4127731347365
19.7863194042095 11.860319404209502 12.4497731347365
10.2827731347365 23.535773134736502 20.1832268652635
8.796226865263499 20.1307731347365 6.5486805957905005
19.5697731347365 29.3517731347365 13.7012268652635
4.8232268652635 2.9707731347365005 8.065680595790496
20.322226865263495 3.613226865263499 23.492680595790503
26.7493194042095 19.510226865263498 31.2197731347365
9.4557731347365 29.4062268652635 14.725226865263501
26.8487731347365 24.985226865263506 5.796226865263499
24.322226865263495 22.4067731347365 29.4693194042095
14.200226865263495 9.7207731347365 8.2957731347365
27.689773134736498 17.9417731347365 7.338134326317515
21.068226865263505 13.743226865263502 25.305773134736498
30.3477731347365 21.861773134736502 4.719680595790493
6.975226865263501 11.215226865263496 11.090773134736502
28.971226865263496 0.1576805957904952 0.958226865263498
32.0533194042095 12.766226865263498 21.626226865263497
2.9362268652634995 6.415773134736501 9.456680595790502
0.6417731347364999 18.8617731347365 22.482226865263506
1.0446805957904957 11.5152268652635 18.801226865263494
24.8887731347365 9.3837731347365 14.958680595790497
10.3477731347365 2.722226865263501 13.4527731347365
0.11322686526349912 0.7616805957904944 27.7627731347365
4.222773134736499 16.075226865263495 27.361773134736502
7.359226865263501 18.298226865263494 6.011773134736501
31.267319404209502 1.4017731347364997 4.491226865263499
14.2987731347365 11.1147731347365 30.026319404209502
0.49968059579049395 20.0627731347365 21.5333194042095
14.8557731347365 24.805773134736498 20.2932268652635
24.5723194042095 11.931773134736499 24.5342268652635
29.666226865263503 14.0517731347365 27.4873194042095
29.0333194042095 5.302226865263499 0.8437731347364998
9.133226865263502 2.299226865263499 4.787773134736501
13.698680595790506 3.9916805957904984 8.228226865263501
13.043226865263499 19.0187731347365 15.040226865263499
16.485226865263506 11.214226865263498 30.2287731347365
21.3297731347365 30.5243194042095 11.0167731347365
26.259226865263493 19.4512268652635 24.5407731347365
9.716680595790493 11.1907731347365 7.132680595790504
13.337773134736501 15.030773134736501 2.854680595790498
26.9797731347365 13.6497731347365 26.509226865263493
8.3077731347365 30.5407731347365 14.5717731347365
0.6012268652634987 8.1217731347365 13.8387731347365
5.6466805957904995 16.4027731347365 0.6132268652634991
27.6037731347365 0.8007731347365006 23.285226865263503
6.522680595790504 9.802319404209502 24.577226865263505
21.190226865263504 24.4583194042095 30.029226865263503
20.089226865263505 9.776319404209499 8.224226865263496
7.462680595790502 1.667319404209504 4.5032268652635
10.183773134736501 7.410680595790495 3.498226865263497
26.5063194042095 22.120226865263497 9.656226865263498
2.421226865263499 5.789134326317509 5.919226865263504
6.3322268652635 14.0092268652635 23.3352268652635
17.382226865263497 1.1312268652634998 29.3093194042095
1.593226865263496 16.8927731347365 10.697226865263495
15.5697731347365 22.8322268652635 6.619226865263499
3.7976805957904958 16.7812268652635 12.758226865263502
5.021773134736501 28.6477731347365 1.790680595790505
6.496680595790494 6.158226865263501 16.205226865263505
18.1597731347365 31.7467731347365 26.0947731347365
20.0557731347365 28.6493194042095 14.3093194042095
15.837319404209499 3.5347731347365006 10.648680595790495
2.5477731347365005 15.1977731347365 30.526865673682508
24.5367731347365 23.455226865263505 14.2437731347365
28.003319404209503 30.305319404209502 18.017226865263503
29.5732268652635 13.234226865263501 29.244773134736498
24.6537731347365 30.4773194042095 24.9512268652635
7.424680595790505 16.7927731347365 11.2247731347365
27.258226865263502 8.1372268652635 23.102773134736502
9.4497731347365 4.725226865263501 30.367773134736503
4.941680595790501 19.5257731347365 5.725226865263501
25.702680595790497 20.090680595790502 16.592226865263505
29.2837731347365 13.876226865263497 26.1337731347365
30.529226865263503 17.893226865263493 7.446680595790497
8.114226865263497 14.58113432631751 24.8073194042095
3.3366805957904973 8.5942268652635 13.552773134736501
19.7877731347365 20.8532268652635 0.3203194042095028
2.5792268652635 0.2926805957905003 25.9223194042095
27.950226865263495 13.702226865263505 13.962226865263496
14.7817731347365 27.190226865263504 22.7012268652635
19.8407731347365 27.8627731347365 5.8727731347365
2.502680595790494 0.6492268652635005 30.7357731347365
28.372773134736498 20.605226865263496 13.8202268652635
15.595226865263498 10.182319404209498 18.2083194042095
3.5896805957904974 3.360680595790498 0.8006805957904959
30.0687731347365 3.0866805957904973 10.5157731347365
13.010226865263498 30.3382268652635 2.412680595790505
20.1862268652635 12.9227731347365 25.2817731347365
7.049773134736501 12.527773134736501 18.5757731347365
24.355773134736502 14.4387731347365 20.1497731347365
15.7757731347365 21.3087731347365 9.742680595790503
30.5797731347365 28.9967731347365 27.371680595790508
20.9407731347365 5.309226865263504 8.260226865263498
31.375226865263507 8.145319404209499 14.144226865263498
0.05477313473650014 18.3117731347365 22.465319404209502
20.8357731347365 5.4197731347365 21.632226865263497
21.654319404209502 3.2672268652635026 21.2432268652635
1.4586805957904971 2.931773134736501 31.2167731347365
8.835680595790492 26.321226865263505 24.241773134736498
19.3967731347365 9.9662268652635 8.279773134736502
31.830226865263505 3.103680595790493 22.9157731347365
20.4177731347365 28.6467731347365 4.2977731347365005
21.062226865263504 15.4417731347365 19.2477731347365
27.979226865263506 27.5717731347365 2.9607731347365007
6.4967731347365 20.7312268652635 1.6137731347364994
29.183773134736498 22.405226865263494 6.510226865263498
31.0397731347365 25.6297731347365 12.8757731347365
7.358680595790503 13.0977731347365 2.1467731347365007
28.839226865263505 4.2502268652635 19.4476805957905
14.005680595790494 32.1697731347365 2.2342268652635013
31.2746805957905 21.654226865263503 5.6372268652635
26.299319404209502 25.1247731347365 5.718226865263496
2.2412268652634992 31.0733194042095 9.8842268652635
1.4052268652635007 15.1667731347365 0.7626805957904992
23.6473194042095 9.3052268652635 27.3163194042095
20.599773134736502 13.470226865263498 11.0067731347365
13.6767731347365 7.639773134736501 15.2577731347365
21.5153194042095 4.9432268652635045 7.333226865263498
26.586226865263505 3.2697731347365 16.3087731347365
6.908226865263501 29.2727731347365 30.164226865263494
25.9473194042095 31.7433194042095 22.9523194042095
21.3472268652635 30.3553194042095 4.3892268652635025
0.36222686526350145 30.7103194042095 3.688226865263495
14.145319404209499 10.794226865263504 10.0032268652635
24.913226865263503 30.023319404209502 21.0043194042095
11.8583194042095 24.3217731347365 30.8417731347365
13.493226865263502 29.3457731347365 4.2446805957904985
20.215226865263496 0.514773134736501 15.851319404209502
19.0633194042095 30.7027731347365 8.694226865263495
29.9707731347365 19.0633194042095 8.483226865263497
1.277773134736501 8.1736805957905 13.527773134736501
1.6207731347365009 23.0023194042095 12.193226865263505
3.4606805957904925 27.2197731347365 0.7982268652635014
2.0167731347365 1.5016805957905035 3.713773134736501
18.1357731347365 10.380226865263502 9.9357731347365
15.9577731347365 8.8722268652635 14.1757731347365
15.151226865263503 18.7777731347365 6.4177731347365
8.296773134736501 19.4327731347365 5.3267731347365
18.083680595790497 3.252680595790494 20.3217731347365
24.8837731347365 21.8107731347365 12.8262268652635
31.267226865263503 18.340226865263496 1.6716805957905052
6.7577731347364995 21.101226865263506 27.803680595790496
6.212226865263496 1.786226865263501 21.7297731347365
8.8567731347365 30.541226865263503 30.7827731347365
14.394680595790504 12.367680595790503 14.5967731347365
14.376226865263497 21.0163194042095 21.875226865263507
25.9122268652635 19.6987731347365 29.5457731347365
13.8297731347365 16.5372268652635 17.003226865263507
20.697226865263495 0.8292268652635002 30.348680595790498
27.2743194042095 5.3962268652635 17.131226865263493
24.5636805957905 22.9367731347365 6.229773134736501
2.498226865263497 9.7557731347365 6.0877731347365
16.5063194042095 5.0473194042094995 1.7706805957904947
18.590226865263496 24.6497731347365 23.5427731347365
3.809773134736501 9.3907731347365 31.8927731347365
24.2012268652635 24.8487731347365 13.3197731347365
23.9757731347365 22.1097731347365 5.8027731347364995
29.9517731347365 19.385226865263498 28.300226865263504
30.6247731347365 15.3962268652635 18.810226865263495
23.3137731347365 11.779226865263503 18.175226865263504
3.0977731347364994 27.739226865263497 15.4387731347365
3.495773134736501 8.5062268652635 26.426226865263494
22.7087731347365 20.6857731347365 0.8026805957905054
29.9763194042095 15.7562268652635 2.4376805957904963
13.0157731347365 12.767773134736501 2.7506805957904987
0.6987731347365003 0.833226865263498 29.0126805957905
4.236226865263497 6.0067731347365 23.6017731347365
30.5907731347365 21.014226865263502 9.1417731347365
26.016865673682503 20.0967731347365 6.305226865263499
5.0336805957905 15.060226865263495 17.321226865263505
20.0027731347365 18.5897731347365 25.064773134736498
20.1977731347365 0.34313432631751084 12.238773134736501
14.8007731347365 11.2472268652635 2.0982268652634986
7.0146805957904945 12.891680595790504 19.2767731347365
8.662226865263499 12.343319404209499 27.7007731347365
18.0847731347365 11.4662268652635 13.718680595790502
21.161226865263494 27.9233194042095 17.578226865263495
20.2037731347365 31.607226865263506 14.919680595790496
25.556226865263504 21.3293194042095 15.2297731347365
20.3277731347365 1.5512268652634944 9.1887731347365
12.485226865263499 13.117226865263497 31.5297731347365
26.8867731347365 6.728226865263501 23.8677731347365
6.685226865263495 12.801226865263494 9.967226865263498
12.2477731347365 5.649319404209503 29.128319404209503
0.8312268652634955 8.872773134736502 5.6282268652635
29.1143194042095 18.8307731347365 24.173226865263494
9.9157731347365 5.3567731347365 12.3022268652635
1.7856805957904953 9.220226865263498 4.9452268652635
7.9307731347365 8.215680595790502 8.117773134736499
1.4662268652635007 13.020226865263503 22.0606805957905
17.7187731347365 31.739773134736502 13.557226865263495
4.056680595790496 17.4117731347365 18.151226865263503
9.479226865263499 15.1177731347365 25.7377731347365
9.523773134736501 11.977226865263496 19.6157731347365
17.971226865263496 10.108226865263497 9.4327731347365
10.410680595790495 21.0407731347365 18.738865673682497
9.7337731347365 20.4067731347365 22.3003194042095
25.658226865263494 17.9238656736825 17.2372268652635
23.5383194042095 13.311319404209502 26.6623194042095
17.276226865263503 22.360226865263506 10.580680595790497
23.230773134736502 10.482319404209502 14.4967731347365
22.129226865263497 17.7197731347365 21.4903194042095
26.6527731347365 22.9177731347365 9.798226865263501
18.164226865263494 20.3867731347365 7.961226865263498
1.3922268652635026 2.5216805957904995 10.475319404209504
3.6532268652634983 6.6887731347365005 30.8347731347365
14.8467731347365 26.6437731347365 24.0967731347365
14.684226865263504 4.7917731347365 25.7097731347365
27.465226865263496 19.0527731347365 7.199226865263505
22.5522268652635 1.9927731347365008 20.054226865263495
20.4993194042095 25.0677731347365 30.8477731347365
9.840773134736502 30.1457731347365 13.242226865263497
2.1722268652635037 6.9167731347365 16.140319404209503
0.870226865263497 19.851226865263506 7.4676805957904975
2.327680595790497 11.4347731347365 13.172226865263504
21.9567731347365 7.332773134736501 4.607226865263499
9.218226865263496 15.0017731347365 22.880226865263502
25.337226865263496 22.422226865263504 10.0032268652635
10.252226865263502 24.048226865263494 20.7987731347365
23.8457731347365 24.7103194042095 24.4187731347365
26.0852268652635 12.067319404209503 19.730226865263496
22.804226865263495 25.4727731347365 9.796773134736501
0.8922268652635026 22.480226865263496 20.0427731347365
7.3667731347364995 25.251773134736503 21.741226865263506
19.419773134736502 0.29777313473650047 15.122319404209502
30.5297731347365 13.243680595790494 27.995226865263497
1.751773134736501 11.0852268652635 21.389226865263502
22.328319404209502 11.7883194042095 15.665226865263499
27.286226865263494 28.558773134736498 17.169773134736502
10.669226865263504 7.241319404209502 25.77668059579051
7.9977731347365 18.9032268652635 4.4482268652635
23.999226865263502 17.450226865263495 19.673226865263494
17.4207731347365 20.753773134736498 1.7752268652634982
15.1707731347365 11.4697731347365 1.0062268652634998
12.406226865263498 32.0017731347365 8.228226865263501
26.244319404209502 1.6606805957904953 7.431226865263504
16.0612268652635 22.880226865263502 8.0707731347365
20.325226865263495 0.796226865263499 22.893226865263493
2.192680595790506 21.8226805957905 12.850226865263501
30.160226865263503 12.0137731347365 12.091319404209504
31.895226865263503 18.6763194042095 6.925226865263504
5.4056805957905 16.9782268652635 17.1737731347365
20.3843194042095 26.3472268652635 23.8273194042095
7.894226865263498 5.702226865263505 14.3046805957905
2.783226865263501 16.8443194042095 25.3793194042095
6.1252268652635 15.107226865263499 0.18468059579049623
28.547773134736502 29.753773134736498 12.996680595790494
22.9633194042095 23.5437731347365 31.346680595790502
18.8517731347365 20.50568059579051 6.970319404209501
1.779226865263503 31.555773134736498 10.100680595790493
7.9557731347365 14.884680595790499 6.864226865263497
6.476680595790498 12.448319404209503 18.9817731347365
16.3107731347365 8.8887731347365 7.1196805957904985
11.724226865263496 17.5333194042095 13.9297731347365
17.2317731347365 30.5642268652635 11.120226865263497
19.617865673682502 23.9657731347365 22.652226865263493
6.6157731347365 13.8992268652635 7.671226865263499
17.8683194042095 25.614773134736502 21.8733194042095
20.727226865263496 30.607319404209502 27.8823194042095
2.7012268652635 6.502226865263502 13.7757731347365
10.904773134736502 5.042226865263501 26.2697731347365
4.7697731347365 21.3773194042095 5.915680595790505
22.025226865263498 30.014226865263502 2.822226865263495
5.613680595790498 4.010226865263498 8.630226865263502
3.687773134736501 23.8987731347365 7.7652268652635
1.2752268652634982 10.4767731347365 28.4827731347365
29.3106805957905 10.644226865263498 12.194226865263495
20.891226865263498 5.2866805957905 19.6677731347365
9.287226865263499 25.025680595790504 21.729226865263506
22.508226865263502 24.3013194042095 29.751226865263497
17.6967731347365 30.035226865263503 27.6953194042095
27.574226865263505 3.0642268652634996 12.484319404209504
10.6987731347365 12.501226865263497 27.007226865263497
9.4707731347365 24.549319404209502 19.5247731347365
7.303226865263504 8.0237731347365 6.118226865263502
6.4313194042095 28.1687731347365 2.0572268652634946
17.571226865263505 1.279226865263503 14.3887731347365
28.349226865263496 12.5546805957905 28.209319404209502
27.6443194042095 4.764319404209498 17.673226865263494
6.3697731347365 22.8277731347365 2.1157731347365
6.290773134736501 14.362226865263501 0.5273194042095035
24.497773134736498 17.729226865263506 3.657226865263503
22.199226865263505 2.9392268652634996 19.244226865263506
2.6532268652634983 8.056226865263504 2.519226865263498
8.2407731347365 7.360773134736501 3.8692268652634993
5.977226865263496 0.8446805957904928 23.2596805957905
5.9983194042095 24.619773134736498 21.4572268652635
3.722680595790493 18.0443194042095 17.6737731347365
31.080226865263505 13.534226865263498 27.357680595790498
24.492773134736503 23.8537731347365 30.694226865263495
30.8203194042095 30.6687731347365 29.2897731347365
19.519226865263498 31.797773134736502 30.813226865263495
20.9267731347365 3.982680595790498 9.220226865263498
12.449226865263505 4.401226865263503 11.593226865263496
23.128773134736498 6.260680595790504 29.1043194042095
8.1832268652635 9.1233194042095 28.1407731347365
20.1317731347365 24.3562268652635 16.3382268652635
27.5423194042095 20.5503194042095 15.2907731347365
21.4727731347365 9.696226865263505 7.035226865263503
9.036226865263501 9.7177731347365 1.9703194042095014
16.574226865263505 9.633680595790494 18.2107731347365
2.3212268652635046 29.119319404209502 13.566680595790501
19.166773134736502 22.477773134736502 18.273226865263503
1.7432268652635017 27.282319404209503 22.830865673682496
20.6097731347365 4.2157731347365 18.759226865263493
11.465773134736502 0.6532268652634983 17.407226865263503
22.8502268652635 21.4422268652635 6.877226865263502
31.504226865263497 11.932226865263495 25.8537731347365
3.637319404209503 29.4267731347365 9.456319404209498
8.3717731347365 4.601680595790498 24.655226865263494
9.3966805957905 21.2017731347365 24.4267731347365
10.9082268652635 21.991226865263506 22.4203194042095
23.786226865263494 16.0612268652635 2.9222268652635037
26.825319404209502 22.8502268652635 5.553773134736501
20.8502268652635 1.9137731347365001 21.339226865263505
0.8767731347365011 19.142319404209502 4.367773134736501
21.0097731347365 0.968226865263496 17.5277731347365
12.974226865263496 15.578680595790502 2.496226865263502
5.1707731347365 16.622226865263507 14.580226865263505
8.0792268652635 8.855226865263496 6.7887731347365
11.3757731347365 18.7087731347365 21.3697731347365
26.911226865263494 1.4227731347365005 26.3232268652635
20.76168059579051 13.9317731347365 10.517773134736501
11.7047731347365 19.227226865263496 23.551226865263494
18.309226865263504 15.2562268652635 26.375226865263507
21.532226865263503 23.481680595790507 17.5792268652635
23.9297731347365 24.6127731347365 14.540226865263499
22.4657731347365 27.837226865263496 5.803680595790496
17.871680595790508 22.7267731347365 17.360680595790498
12.806226865263504 26.221226865263496 27.6247731347365
24.363226865263506 4.3437731347365 28.0697731347365
18.1447731347365 11.065134326317505 0.7831343263175086
6.2712268652635 2.597226865263501 8.0257731347365
19.7057731347365 28.4693194042095 16.992680595790503
7.9633194042095035 29.8267731347365 0.10677313473649974
28.0317731347365 18.9627731347365 18.7317731347365
21.852773134736502 5.1937731347364995 5.2712268652635
20.8592268652635 7.127226865263502 16.5402268652635
23.9722268652635 26.4177731347365 4.8673194042095
19.9417731347365 5.525226865263498 18.843680595790502
18.953226865263495 0.39022686526350014 19.1373194042095
3.1897731347365 31.2777731347365 23.818680595790497
9.553226865263504 19.426226865263494 23.369226865263506
2.4986805957905034 10.5407731347365 11.112319404209504
25.621226865263502 13.015319404209503 2.938680595790501
3.543226865263499 14.8107731347365 27.050773134736502
1.5817731347365012 0.47568059579049304 27.821226865263505
21.425226865263504 2.273680595790495 16.518226865263493
12.010680595790504 12.142319404209498 24.0937731347365
8.0537731347365 20.3807731347365 18.651226865263503
2.2047731347365005 25.4752268652635 25.658226865263494
0.16377313473650013 11.0187731347365 25.2553194042095
31.2012268652635 11.1367731347365 13.766226865263498
28.0157731347365 8.1447731347365 18.7717731347365
15.4117731347365 8.878680595790499 20.3183194042095
6.4487731347365 23.482226865263506 26.4427731347365
14.703226865263495 25.9727731347365 15.4397731347365
1.0822268652635003 28.4602268652635 22.544226865263504
9.7727731347365 13.479226865263499 5.035680595790495
9.8112268652635 11.868319404209497 26.9443194042095
15.910226865263503 11.279226865263503 20.2282268652635
21.0377731347365 26.532319404209503 13.2712268652635
14.073319404209503 5.550680595790496 0.4437731347364995
27.8167731347365 8.189680595790506 23.4573194042095
21.0642268652635 6.414226865263501 4.081773134736501
8.9632268652635 17.7597731347365 6.085773134736501
2.3367731347365 9.221226865263496 21.461226865263505
13.334319404209499 1.725680595790493 14.541226865263503
8.8357731347365 24.5942268652635 22.4997731347365
11.627680595790494 12.6597731347365 27.0433194042095
3.320680595790506 9.961319404209501 21.2683194042095
6.958226865263498 12.1547731347365 8.784226865263498
24.736226865263497 10.730226865263496 16.0977731347365
16.631773134736502 12.0182268652635 25.2737731347365
29.446226865263505 30.5773194042095 0.833226865263498
27.8287731347365 21.4707731347365 0.5042268652634974
3.6062268652635012 1.4216805957905052 21.422773134736502
20.965226865263496 6.668680595790505 12.329680595790492
21.5483194042095 22.855226865263496 21.5377731347365
8.6557731347365 9.757226865263497 10.376226865263497
8.6552268652635 23.955226865263505 11.7222268652635
14.2382268652635 22.532226865263503 14.206226865263496
9.2077731347365 22.4677731347365 19.970226865263506
31.3323194042095 18.8797731347365 25.726226865263506
24.714226865263505 23.8353194042095 7.988319404209502
23.7347731347365 16.4907731347365 3.850226865263501
17.614226865263497 11.331226865263496 6.727319404209499
15.235773134736501 30.583226865263505 30.3472268652635
0.0017731347364993155 1.816226865263495 23.6013194042095
29.4263194042095 8.069226865263495 31.022226865263498
29.124226865263502 7.793773134736501 25.3507731347365
30.9687731347365 27.5947731347365 7.619865673682511
20.042226865263494 27.059226865263504 15.9447731347365
6.740226865263502 31.2697731347365 17.497226865263507
27.6277731347365 30.6433194042095 10.9923194042095
4.0937731347365 4.178773134736501 15.9487731347365
26.558319404209502 29.770319404209502 30.988226865263506
10.1237731347365 18.1587731347365 13.111865673682502
5.748680595790503 16.5687731347365 16.7386805957905
5.575773134736501 1.4492268652635047 7.3847731347365
28.4737731347365 31.2967731347365 22.2812268652635
10.328773134736501 25.658226865263494 10.988773134736501
25.814773134736498 26.2342268652635 29.9517731347365
26.3562268652635 19.999226865263502 6.469773134736501
3.7192268652635008 29.3547731347365 17.005226865263502
8.7587731347365 9.683773134736501 5.816226865263495
24.7506805957905 13.086319404209501 25.008226865263502
22.5473194042095 6.2097731347364995 28.876773134736503
9.2617731347365 16.9197731347365 14.8307731347365
16.6677731347365 1.1372268652635 28.884226865263493
17.526319404209502 26.340319404209502 19.9267731347365
3.5116805957904944 18.607226865263506 16.0277731347365
23.7163194042095 17.631226865263493 3.4422268652634997
23.7393194042095 5.5617731347365 0.14422686526349793
