9.845226865263498 3.742226865263497 28.1763194042095
20.254226865263497 27.1843194042095 2.0512268652634944
19.6167731347365 0.9292268652634945 16.6887731347365
21.1177731347365 0.28522686526350327 11.3322268652635
26.110226865263506 11.7913194042095 5.9422268652635
29.367226865263497 5.9452268652635 12.9692268652635
29.426226865263494 13.4527731347365 10.1462268652635
14.1143194042095 24.8297731347365 15.7297731347365
18.6886805957905 6.199226865263505 29.749226865263502
12.5637731347365 10.013226865263498 29.546319404209502
29.2047731347365 23.547680595790496 15.9747731347365
5.703773134736501 28.7757731347365 5.032226865263503
30.7767731347365 0.06131940420950599 0.17122686526349895
22.262226865263493 5.610680595790498 15.1706805957905
8.795226865263501 7.437226865263504 15.961226865263505
14.549226865263499 28.5503194042095 26.127226865263502
32.1533194042095 16.2527731347365 19.099226865263496
4.792226865263501 15.1372268652635 22.3262268652635
11.4493194042095 1.2727731347365001 2.3862268652635024
5.181226865263504 29.5393194042095 5.867226865263497
26.2547731347365 32.105773134736495 26.468226865263496
30.1363194042095 23.7147731347365 15.0822268652635
1.6307731347365007 12.3597731347365 14.6406805957905
9.389226865263502 8.0267731347365 14.331773134736501
29.1213194042095 25.9997731347365 25.7177731347365
22.236226865263497 6.1932268652635045 15.645226865263503
8.013226865263498 2.6667731347365002 8.5737731347365
31.7133194042095 23.145226865263503 14.349680595790502
21.0283194042095 25.2067731347365 5.7857731347365
30.5027731347365 13.794226865263504 17.653680595790505
8.985226865263499 12.752319404209498 12.1353194042095
31.429226865263495 10.297226865263504 7.192680595790506
31.9097731347365 4.691319404209498 20.270226865263503
26.8317731347365 7.2446805957904985 18.532226865263503
13.2577731347365 12.4572268652635 19.9242268652635
10.461588056844505 4.434226865263504 9.7742268652635
29.8847731347365 14.337226865263496 6.1873194042095
25.6327731347365 22.128773134736498 14.0732268652635
1.6327731347364995 29.794226865263504 20.0937731347365
5.935680595790501 16.7913194042095 30.4272268652635
7.7513194042095 7.335773134736501 17.950319404209502
9.737680595790493 13.505226865263502 2.5007731347365
4.144680595790504 10.919226865263504 7.9162268652635035
8.838773134736499 4.559226865263504 12.742226865263497
22.4886805957905 0.29922686526349906 21.1002268652635
16.163773134736502 15.7577731347365 3.9622268652634958
5.495773134736501 9.0547731347365 16.7107731347365
25.0137731347365 19.608226865263497 12.7667731347365
12.4177731347365 30.9063194042095 9.160226865263503
22.628773134736498 16.6832268652635 9.9357731347365
11.2627731347365 28.038226865263503 31.9087731347365
12.536226865263501 21.388226865263498 14.490226865263502
16.0527731347365 15.2397731347365 5.895773134736499
8.0912268652635 2.141226865263498 22.4842268652635
6.302226865263499 17.1652268652635 28.7243194042095
4.120680595790503 29.5077731347365 21.8052268652635
5.3117731347365 28.7057731347365 0.7627731347365003
21.6357731347365 11.4747731347365 14.672226865263504
25.9087731347365 7.681226865263504 17.4187731347365
13.8967731347365 10.371226865263502 19.9267731347365
5.3437731347365 30.108226865263497 5.0242268652635005
26.8517731347365 23.5797731347365 21.3367731347365
14.308680595790506 3.0032268652634997 13.964680595790497
26.950226865263495 28.9086805957905 17.9693194042095
20.6002268652635 25.7252268652635 15.309226865263504
17.461680595790497 26.113773134736498 28.9617731347365
22.9223194042095 14.3992268652635 1.0987731347365006
3.033773134736501 15.1117731347365 23.3163194042095
7.946226865263505 7.3177731347365 31.5973194042095
7.636226865263502 22.849226865263496 0.7832268652635008
4.178680595790496 15.3867731347365 1.299226865263499
27.0023194042095 21.583134326317506 3.282226865263503
4.334680595790502 27.056773134736503 22.6707731347365
20.4977731347365 14.589680595790497 30.4557731347365
2.6862268652634995 28.0277731347365 30.5687731347365
9.644226865263498 9.2317731347365 24.622773134736498
0.2502268652634996 30.1587731347365 25.4057731347365
21.5456805957905 13.5732268652635 9.0702268652635
2.050226865263504 30.5923194042095 22.8607731347365
21.7377731347365 29.2957731347365 6.4602268652635
31.7012268652635 29.0497731347365 10.708319404209501
1.0967731347365 6.2697731347365 19.1787731347365
11.376226865263497 11.560226865263495 8.648773134736501
24.178865673682495 4.681773134736501 8.118226865263502
23.357319404209502 11.552773134736501 22.558680595790506
30.9547731347365 25.000226865263507 3.1362268652635024
22.4967731347365 12.740226865263502 2.793773134736501
18.732226865263506 7.357773134736501 30.536226865263494
5.812226865263504 15.557319404209498 2.5426805957905003
17.3227731347365 0.725226865263501 14.2047731347365
0.14022686526350014 0.41477313473649957 27.218319404209502
23.024226865263493 8.2547731347365 27.7937731347365
6.403226865263498 19.515226865263493 6.5197731347365
24.9687731347365 8.609226865263501 6.497680595790499
13.8197731347365 27.1297731347365 30.595226865263506
0.5582268652634994 28.2312268652635 23.25568059579051
12.103226865263501 19.3726805957905 18.1977731347365
30.7833194042095 6.482680595790498 10.6132268652635
4.830226865263505 19.152226865263493 13.1597731347365
22.541226865263503 3.7716805957904995 2.060680595790501
12.9847731347365 21.1837731347365 27.1693194042095
24.5147731347365 14.031680595790505 31.116226865263506
19.4307731347365 22.7047731347365 24.2967731347365
22.9283194042095 23.1677731347365 20.5927731347365
13.1862268652635 6.527226865263501 5.946680595790497
3.439680595790506 28.0077731347365 3.023226865263503
24.597680595790507 4.738226865263499 10.252680595790494
23.7067731347365 19.914226865263494 11.441226865263495
1.9326805957905009 4.391680595790504 19.877226865263502
28.77068059579051 10.098226865263499 22.1663194042095
26.3857731347365 23.1093194042095 21.977226865263496
26.0337731347365 10.9972268652635 10.7837731347365
1.1987731347365003 24.9872268652635 28.825319404209502
31.968226865263496 27.735226865263506 12.618680595790494
7.9967731347365 23.375226865263507 31.6417731347365
10.558773134736501 12.8273194042095 3.583226865263498
31.899226865263493 1.580226865263505 17.2727731347365
15.678226865263504 15.5152268652635 20.563226865263495
12.7427731347365 10.3906805957905 30.236773134736502
13.350319404209504 6.6322268652634975 6.527226865263501
0.7942268652635036 8.302773134736501 32.0087731347365
3.817680595790506 30.3987731347365 24.1373194042095
10.5677731347365 1.466773134736501 22.992226865263497
3.5847731347364995 3.6947731347365007 19.837319404209502
29.0677731347365 15.2382268652635 19.4697731347365
16.9667731347365 17.265226865263493 12.871680595790494
26.739773134736502 23.2237731347365 24.4657731347365
18.460680595790507 18.270226865263503 14.5032268652635
24.827226865263505 22.5882268652635 2.5336805957905
23.992226865263497 31.5747731347365 0.6052268652634964
12.221226865263496 5.5032268652635 15.184680595790496
31.4263194042095 1.3426805957904975 8.541680595790496
5.283226865263501 20.4007731347365 1.8022268652634992
26.5097731347365 13.273680595790495 5.3877731347365
14.1467731347365 9.6117731347365 17.8117731347365
21.1622268652635 30.7827731347365 28.7967731347365
18.0887731347365 15.196226865263505 13.889226865263502
19.744226865263506 31.6032268652635 16.092226865263505
21.6737731347365 30.605773134736502 15.8913194042095
28.7753194042095 7.600680595790493 2.479226865263499
0.6277731347365005 15.526680595790495 19.169680595790496
5.354226865263499 31.6473194042095 18.555319404209502
4.153226865263498 14.933680595790506 23.310226865263495
12.402773134736501 4.7232268652634986 8.800226865263504
7.358226865263497 21.0587731347365 0.6286805957904988
17.0267731347365 5.599226865263496 9.569226865263495
22.7737731347365 22.2747731347365 21.8207731347365
17.5703194042095 15.9787731347365 14.139226865263502
16.8513194042095 28.9373194042095 13.345680595790498
18.968680595790502 22.8532268652635 2.4202268652635013
2.7127731347364996 11.4697731347365 28.198680595790506
1.921773134736501 9.741680595790498 21.4757731347365
26.4212268652635 6.645680595790495 5.613226865263499
6.526226865263503 0.225226865263501 18.7493194042095
25.762226865263493 4.084680595790502 10.526134326317504
29.1687731347365 6.8812268652635 14.0387731347365
28.3348656736825 24.741226865263506 22.660226865263503
1.418773134736501 10.200680595790502 21.9127731347365
24.4067731347365 11.528226865263498 19.733773134736502
16.994226865263506 17.219680595790507 22.369319404209502
7.354773134736501 31.3383194042095 32.00568059579051
29.3687731347365 28.122319404209502 24.696226865263505
5.341226865263501 29.485319404209502 6.7607731347365
19.971226865263496 23.7573194042095 14.1587731347365
6.7543194042095 17.125226865263507 20.4117731347365
10.488773134736501 7.7637731347365 15.050226865263504
26.0603194042095 8.342226865263498 17.864226865263497
4.097226865263501 31.611773134736502 31.561773134736498
6.485773134736501 28.531680595790505 25.8413194042095
13.730226865263496 22.3383194042095 13.601226865263499
25.129680595790504 23.5793194042095 0.01222686526350003
15.549226865263499 31.5792268652635 2.3977731347365
10.0717731347365 29.274226865263493 18.4152268652635
29.598865673682496 8.5427731347365 14.507226865263497
20.2457731347365 14.417319404209504 17.6407731347365
5.727226865263496 29.367226865263497 24.201680595790506
31.8523194042095 19.9877731347365 0.4496805957904968
22.627226865263502 28.779226865263503 14.348226865263499
11.551226865263494 20.4293194042095 25.1613194042095
13.769226865263498 10.816226865263495 10.922226865263504
24.634226865263493 18.8803194042095 13.636226865263502
21.8317731347365 4.5982268652634986 1.2317731347364997
31.6947731347365 17.158226865263494 31.3303194042095
10.250680595790499 16.8793194042095 30.272411943155504
6.321226865263505 3.1992268652635047 7.533773134736501
8.1117731347365 19.4887731347365 15.3027731347365
19.4602268652635 30.480226865263496 19.2177731347365
16.7407731347365 11.242226865263497 0.7856805957904953
10.2667731347365 27.686773134736498 2.5472268652635037
14.7513194042095 21.974773134736502 4.327680595790497
0.13077313473650065 9.5187731347365 5.965226865263496
28.2057731347365 14.8977731347365 30.864773134736502
27.666226865263503 27.796319404209502 13.398319404209499
23.7017731347365 9.8142268652635 0.9782268652635011
4.2767731347365 29.564773134736498 7.894680595790504
26.908226865263494 20.5557731347365 4.404226865263503
15.3007731347365 3.9327731347365003 26.895226865263503
5.785226865263503 28.8047731347365 20.782319404209503
29.8817731347365 19.4803194042095 8.0917731347365
26.1107731347365 2.5652268652635044 11.297226865263504
20.5937731347365 11.5912268652635 13.6892268652635
15.806226865263504 16.4413194042095 28.427773134736498
26.089226865263505 6.0882268652635005 4.522226865263498
9.560226865263495 27.4657731347365 26.7607731347365
30.116773134736498 28.985226865263506 17.074226865263505
14.5977731347365 31.875773134736498 9.306226865263504
27.2683194042095 5.2102268652635 4.8787731347365
30.0287731347365 24.5603194042095 27.1033194042095
29.9602268652635 6.1417731347365 3.090226865263496
12.357773134736501 4.611680595790503 9.427773134736501
7.1737731347365 23.3652268652635 31.5453194042095
6.313226865263495 21.8937731347365 19.913226865263503
22.541226865263503 8.644226865263498 14.8907731347365
31.9077731347365 5.1897731347365 2.8232268652635
7.798134326317509 3.1517731347364997 7.2367731347365005
2.3482268652634986 23.6337731347365 5.5557731347365
30.8847731347365 28.024226865263493 8.6937731347365
31.0432268652635 3.6392268652635025 0.25268059579049407
4.227226865263496 17.364226865263497 22.6183194042095
12.5773194042095 30.6226805957905 2.8722268652634995
26.4697731347365 13.422226865263504 19.0157731347365
0.8792268652634974 24.0993194042095 4.1392268652635025
7.546680595790505 16.7596805957905 15.536226865263501
7.690226865263504 7.243226865263502 32.1437731347365
31.9993194042095 13.1037731347365 16.6597731347365
6.834680595790502 7.465226865263496 14.2652268652635
7.732226865263499 24.8487731347365 17.193226865263505
30.686319404209502 25.375773134736498 29.1682268652635
27.8472268652635 25.0882268652635 22.0397731347365
6.5027731347365005 8.3107731347365 12.993226865263502
3.238226865263499 4.3482268652634986 4.601773134736501
11.345134326317506 13.0227731347365 29.742226865263497
12.054226865263495 21.779226865263503 12.7337731347365
31.7407731347365 25.842680595790497 14.411319404209504
14.9387731347365 30.922226865263504 29.182226865263495
5.2047731347365005 15.6832268652635 23.7147731347365
23.6917731347365 26.6503194042095 23.710865673682505
23.3813194042095 28.5097731347365 17.7293194042095
9.825773134736501 6.540773134736501 16.022226865263498
32.0807731347365 28.5577731347365 11.9077731347365
6.421773134736501 27.4207731347365 26.396226865263493
3.707134326317515 27.267319404209502 22.4827731347365
16.399226865263493 13.4193194042095 15.5517731347365
24.209226865263496 16.013226865263498 28.5563194042095
19.8247731347365 1.6502268652634982 29.494773134736498
16.017226865263503 2.6152268652635016 18.0057731347365
24.379226865263497 9.6927731347365 7.158773134736501
24.9787731347365 26.8577731347365 30.4812268652635
26.2727731347365 21.0787731347365 16.508226865263502
14.9176805957905 3.2833194042095037 30.224773134736502
29.544773134736502 15.595226865263498 10.523773134736501
21.3507731347365 31.797226865263504 6.483226865263497
7.915226865263499 27.2012268652635 28.397226865263498
25.614773134736502 14.751226865263497 23.6937731347365
7.8482268652634986 20.597680595790507 3.841773134736501
6.793773134736501 26.28268059579051 8.9052268652635
9.2277731347365 13.583226865263498 20.8027731347365
20.890226865263493 25.474773134736502 24.4512268652635
20.3237731347365 29.388865673682503 6.2302268652634964
24.7997731347365 20.280226865263494 16.499226865263502
22.614773134736502 6.8337731347365 8.068680595790497
3.036319404209504 7.6667731347365 27.0703194042095
31.650226865263498 14.7047731347365 1.434773134736501
19.26168059579051 17.7693194042095 13.4117731347365
31.766226865263498 20.737680595790508 3.2912268652635035
21.587226865263496 20.5317731347365 24.211226865263505
5.152226865263501 11.828773134736501 0.6832268652634994
19.048226865263494 30.7347731347365 14.7077731347365
2.6066805957904933 16.4437731347365 2.5132268652634977
5.428680595790496 30.3997731347365 26.257226865263497
0.8232268652635 9.791226865263503 5.889773134736501
28.8327731347365 9.6297731347365 20.4937731347365
29.8937731347365 32.1277731347365 2.874226865263502
14.792226865263501 13.456226865263496 15.756319404209503
7.233226865263497 12.4487731347365 20.494226865263506
30.995865673682502 6.056680595790496 26.4083194042095
20.6197731347365 23.163773134736502 24.8327731347365
24.375773134736498 16.6337731347365 23.084226865263496
13.9497731347365 21.940680595790496 11.991680595790498
17.2073194042095 16.9086805957905 14.6492268652635
13.6127731347365 31.6797731347365 10.808134326317514
7.708680595790497 10.919680595790496 25.430773134736498
23.2467731347365 24.235226865263506 21.169773134736502
0.7782268652634983 23.2737731347365 31.552773134736498
31.3933194042095 29.491319404209502 30.2342268652635
14.272226865263498 22.9117731347365 21.5737731347365
22.3333194042095 9.047226865263504 15.5067731347365
2.688226865263495 24.860226865263506 18.857319404209502
15.656226865263498 17.5597731347365 3.7177731347365004
6.4907731347365 3.1252268652634996 12.5627731347365
22.6597731347365 16.882680595790504 26.4737731347365
3.5402268652634987 15.176226865263494 1.7002268652634953
6.497319404209502 31.111226865263497 23.260226865263498
13.9957731347365 7.816773134736501 2.232773134736501
30.9357731347365 29.8233194042095 2.0612268652634995
12.866319404209502 4.884319404209503 5.6517731347365
4.630226865263502 29.7767731347365 21.5432268652635
15.2047731347365 27.059226865263504 28.8153194042095
19.4813194042095 6.721226865263496 3.7767731347364997
16.633226865263502 1.6382268652634977 16.593226865263496
31.269226865263498 26.276226865263503 12.8617731347365
6.653226865263498 25.5663194042095 15.6117731347365
32.0997731347365 4.241226865263499 31.4057731347365
14.8902268652635 12.6556805957905 23.304226865263495
21.694226865263495 12.3477731347365 8.6162268652635
0.9602268652635004 28.0177731347365 20.345680595790498
26.4447731347365 2.4197731347365004 4.940773134736501
8.9257731347365 6.434226865263504 13.151226865263503
11.931773134736499 2.6422268652635026 15.020773134736501
24.7222268652635 3.5382268652635034 16.515226865263493
6.5533194042095 22.5967731347365 31.5013194042095
14.8837731347365 31.5127731347365 1.8007731347365006
10.030319404209504 3.100680595790493 1.1977731347365008
30.389226865263502 12.967226865263498 17.8052268652635
18.232226865263506 31.770226865263503 27.3807731347365
25.0373194042095 19.712226865263496 16.9917731347365
0.14022686526350014 23.5717731347365 3.6892268652634996
1.4512268652635 27.5483194042095 11.686773134736502
27.480773134736502 11.681773134736499 12.840226865263496
1.9967731347365003 25.536226865263494 23.2487731347365
20.997226865263507 29.4467731347365 4.252226865263502
16.892226865263503 23.071865673682495 0.17368059579050055
16.5282268652635 14.3782268652635 13.287226865263499
14.763226865263498 5.555319404209502 26.5443194042095
6.294680595790496 16.991226865263506 13.5486805957905
0.8642268652634968 6.984680595790493 9.8627731347365
24.4632268652635 30.873865673682502 2.2102268652635004
26.8563194042095 7.3177731347365 14.5337731347365
10.373226865263497 19.474773134736502 5.3426805957904975
5.949226865263505 31.9967731347365 21.857680595790498
11.418773134736501 31.8643194042095 23.092226865263505
12.6957731347365 7.251773134736501 3.1187731347365
15.721680595790502 27.499680595790508 27.132226865263497
26.474773134736502 1.8842268652635 27.538773134736502
1.814680595790506 22.1823194042095 24.179226865263495
18.7983194042095 22.092226865263505 9.9387731347365
9.437680595790496 23.342226865263505 17.718319404209502
14.9086805957905 6.8717731347365 7.223680595790498
26.3873194042095 24.0437731347365 9.411226865263501
2.2372268652635015 4.356680595790493 5.173319404209504
6.0197731347365 9.611226865263497 17.5607731347365
16.5657731347365 6.931680595790496 15.5702268652635
24.0687731347365 27.4143194042095 16.8807731347365
26.507226865263497 22.491319404209502 8.3787731347365
8.2757731347365 24.4997731347365 20.6137731347365
23.88368059579051 12.611226865263497 0.6932268652635045
28.4417731347365 19.9542268652635 26.787865673682504
26.450226865263495 3.4757731347364995 4.7127731347365
29.766226865263498 11.409226865263498 16.649226865263493
14.2926805957905 30.6797731347365 12.0972268652635
4.8717731347365 22.5327731347365 3.4536805957905017
12.344680595790493 19.0167731347365 7.7767731347365
4.7133194042095035 25.163773134736502 11.791226865263503
13.937226865263504 20.6953194042095 15.831773134736501
15.799773134736501 19.408226865263494 31.4267731347365
11.413680595790495 31.8408656736825 2.191226865263495
8.789226865263501 31.189773134736498 14.416226865263503
22.928226865263504 31.7847731347365 2.978226865263501
0.5116805957904944 17.1447731347365 2.7972268652635037
25.2342268652635 11.4577731347365 10.174226865263499
16.4347731347365 17.6487731347365 5.187680595790496
3.800680595790496 26.9453194042095 14.910226865263503
4.2987731347365 27.6443194042095 20.0427731347365
25.5407731347365 31.3013194042095 19.098226865263506
12.0637731347365 9.810319404209498 8.9407731347365
5.0336805957905 29.3903194042095 22.6737731347365
1.1342268652635 18.0717731347365 13.328773134736501
29.801226865263494 5.044226865263504 0.9336805957905057
14.7557731347365 25.3112268652635 27.3687731347365
7.124319404209498 13.3557731347365 26.209680595790502
14.4362268652635 16.1627731347365 21.369226865263506
21.7587731347365 11.0227731347365 13.699226865263505
18.331226865263496 15.9367731347365 10.133226865263502
3.5482268652635014 2.7797731347365 3.918773134736501
27.4847731347365 18.497226865263507 21.0612268652635
23.2167731347365 19.0727731347365 11.1222268652635
5.644226865263498 30.2267731347365 5.462226865263496
22.5597731347365 14.2562268652635 2.775226865263498
4.673226865263501 1.3847731347365002 19.4602268652635
10.657226865263503 20.0767731347365 11.660226865263503
6.311680595790506 29.2222268652635 23.864226865263497
5.046680595790505 30.596319404209503 30.899226865263493
25.0407731347365 31.035773134736502 31.7317731347365
19.082680595790507 3.2173194042095012 11.909134326317513
5.307680595790501 23.2023194042095 0.9542268652635002
7.2897731347365 20.2663194042095 9.561134326317514
30.2017731347365 18.050680595790496 7.915773134736501
3.072773134736501 10.9967731347365 14.8367731347365
2.5992268652634962 12.1447731347365 26.7527731347365
31.824226865263505 30.0462268652635 10.281226865263498
26.1772268652635 13.6897731347365 12.4527731347365
19.104226865263506 24.244226865263506 15.0332268652635
14.9577731347365 1.2771343263175083 4.637319404209503
23.655226865263494 16.8853194042095 28.127226865263502
21.747226865263507 16.164226865263494 2.325773134736501
14.5777731347365 11.7746805957905 26.0827731347365
30.8273194042095 13.589319404209501 25.003773134736498
26.596226865263496 8.3277731347365 4.4292268652634945
16.072226865263495 5.8117731347365 14.556226865263504
4.610226865263499 3.4446805957905013 6.5762268652635
2.4162268652635035 27.7267731347365 31.6763194042095
29.7207731347365 14.8662268652635 6.248773134736501
25.8442268652635 21.7013194042095 2.928226865263504
2.0672268652634997 28.425226865263504 31.5792268652635
23.7237731347365 20.692680595790506 6.959680595790502
14.610226865263499 23.736773134736502 20.2746805957905
19.896226865263493 29.9637731347365 23.4452268652635
10.016680595790504 5.0837731347365 16.757226865263497
16.4283194042095 12.6007731347365 26.270226865263503
3.675226865263504 27.854226865263506 6.168226865263499
26.0237731347365 22.4542268652635 2.6627731347365007
8.7513194042095 7.2887731347365 15.3887731347365
23.2837731347365 6.2502268652635 27.6037731347365
18.5787731347365 19.6447731347365 8.3962268652635
30.959319404209502 3.2402268652635016 31.503226865263507
2.267773134736501 27.364773134736502 19.5543194042095
1.1086805957905028 1.3406805957905021 22.9127731347365
20.550680595790496 11.0156805957905 8.879680595790504
6.181226865263504 29.507226865263497 28.176226865263494
18.6497731347365 2.647226865263498 10.725226865263501
26.32041194315549 7.6922268652635 5.299773134736501
28.029226865263503 6.0237731347365 14.3857731347365
24.2637731347365 20.1633194042095 1.461226865263498
4.675226865263504 12.482319404209502 2.016680595790504
15.4617731347365 4.347680595790493 27.3233194042095
31.3513194042095 16.3683194042095 14.9937731347365
30.0552268652635 27.0612268652635 25.8357731347365
6.146773134736501 22.178773134736502 10.016226865263498
23.382226865263497 28.1213194042095 28.5893194042095
12.475226865263501 2.2062268652634955 15.244680595790499
23.261226865263502 4.918773134736501 20.3267731347365
20.825226865263495 14.6787731347365 10.770226865263503
25.6217731347365 4.405773134736501 16.944226865263495
7.8427731347365 6.601319404209502 19.4182268652635
31.6587731347365 18.5883194042095 23.462319404209502
0.24722686526349946 7.471226865263496 12.2167731347365
24.238226865263506 21.7317731347365 1.1321343263175123
6.648680595790495 23.2162268652635 18.361226865263497
5.626226865263497 20.28568059579051 7.808134326317514
25.7117731347365 13.0337731347365 30.304226865263495
31.384226865263493 7.800226865263504 31.4237731347365
5.690773134736501 29.0077731347365 31.602773134736502
24.639226865263502 30.6712268652635 17.753226865263507
29.361680595790503 2.003680595790499 10.494773134736501
13.694226865263495 22.857319404209502 22.1227731347365
30.940226865263504 9.5377731347365 25.300226865263504
26.4027731347365 23.1853194042095 31.8353194042095
3.211226865263498 2.938680595790501 2.4842268652635013
12.5257731347365 28.3747731347365 19.096319404209503
8.269226865263498 5.723680595790498 25.801226865263494
1.4806805957905027 10.337226865263496 20.5567731347365
23.130226865263502 18.6707731347365 27.0717731347365
15.138680595790504 31.7037731347365 6.707319404209503
12.9602268652635 18.1403194042095 25.3227731347365
23.4767731347365 21.483773134736502 11.331319404209498
10.6826805957905 16.902226865263493 19.2967731347365
11.234226865263501 28.925680595790496 17.0693194042095
0.13322686526350225 24.6537731347365 9.428226865263504
2.1637731347365 19.2333194042095 27.506226865263493
18.016226865263498 17.5306805957905 1.7012268652635
12.700226865263495 29.2343194042095 9.020773134736501
9.7652268652635 7.080226865263505 14.216773134736501
29.923588056844494 30.083226865263505 31.2113194042095
20.666773134736502 28.9763194042095 28.1918656736825
31.1457731347365 6.7916805957904955 10.129680595790504
22.8417731347365 15.002226865263502 27.1477731347365
25.4207731347365 24.8807731347365 8.992773134736499
28.1097731347365 14.985680595790498 10.587680595790502
31.416773134736502 4.1252268652635 20.4003194042095
6.338680595790493 6.6312268652635 14.493226865263502
1.9867731347365005 5.1407731347365 19.2037731347365
16.788773134736502 30.059773134736503 20.6047731347365
28.378773134736498 14.769226865263498 10.4807731347365
16.9357731347365 2.725680595790493 19.792226865263494
6.7916805957904955 31.741773134736498 20.227773134736502
6.326680595790492 14.232134326317507 24.6466805957905
28.538773134736502 24.6397731347365 3.4302268652634993
31.9997731347365 21.0683194042095 1.1962268652635046
14.2162268652635 23.3667731347365 5.831680595790502
11.492680595790503 3.447319404209498 13.0822268652635
29.6363194042095 12.763226865263498 26.4842268652635
12.6767731347365 25.761226865263502 30.3103194042095
19.6387731347365 14.922226865263504 18.086226865263505
5.129773134736499 15.100226865263501 11.417226865263501
8.092226865263498 28.6007731347365 24.1873194042095
21.3877731347365 9.3037731347365 28.5312268652635
17.9917731347365 21.5487731347365 5.602226865263496
16.063226865263495 13.208226865263498 4.1057731347365
17.7687731347365 18.669226865263504 14.880319404209498
2.005226865263502 22.9377731347365 25.3327731347365
7.614773134736501 13.1753194042095 20.362680595790508
9.513680595790504 0.9886805957904983 22.564680595790506
23.9793194042095 6.011773134736501 19.407226865263503
30.7067731347365 1.9597731347364995 2.8373194042094987
31.114773134736502 31.8843194042095 10.111226865263497
15.889226865263502 0.24722686526349946 5.519680595790504
21.1473194042095 11.232773134736501 10.1997731347365
29.0393194042095 23.499226865263502 28.379226865263497
18.8513194042095 19.055319404209502 14.6247731347365
4.202680595790497 28.9247731347365 28.885226865263498
15.8237731347365 10.599226865263496 1.2902268652634987
11.682226865263495 10.660680595790495 8.3767731347365
30.233773134736502 30.3883194042095 9.3797731347365
16.3077731347365 19.4583194042095 0.9152268652634987
23.510226865263498 15.8717731347365 24.785226865263503
26.360226865263506 29.9693194042095 19.6467731347365
28.6413194042095 23.041773134736502 17.259226865263493
3.2942268652635036 27.102773134736502 5.005226865263502
11.154773134736502 17.8543194042095 13.675226865263504
16.2957731347365 1.114680595790503 16.4793194042095
14.3842268652635 8.075773134736501 1.931226865263504
9.5117731347365 5.9877731347365 15.7573194042095
17.6307731347365 26.849226865263496 4.761319404209498
25.983226865263497 13.1832268652635 5.100226865263501
0.593226865263496 12.284226865263498 15.1492268652635
31.352773134736502 18.8577731347365 8.424773134736501
26.313226865263495 22.5457731347365 1.1817731347365008
16.5492268652635 17.5517731347365 22.5297731347365
6.5702268652635 21.0762268652635 8.046773134736501
4.617773134736501 8.544226865263504 6.9867731347365005
3.1123194042095044 13.776319404209499 26.6477731347365
2.7386805957904983 16.7807731347365 3.776680595790495
19.000226865263507 6.8987731347365 30.447226865263495
13.3902268652635 11.406226865263498 12.043226865263499
11.235226865263499 5.8457731347365005 22.0552268652635
20.048226865263494 25.3307731347365 5.516226865263498
30.016226865263498 19.2842268652635 9.520680595790495
9.325773134736501 1.1562268652634984 21.980773134736502
12.7836805957905 11.060226865263495 15.4542268652635
3.069226865263495 29.590319404209502 23.376680595790504
13.040680595790505 29.9722268652635 5.080226865263505
1.8832268652635022 30.101226865263506 23.474226865263496
25.8407731347365 2.469773134736501 17.9797731347365
28.2432268652635 0.8862268652635024 10.7802268652635
5.579680595790492 27.9703194042095 7.455226865263505
12.233680595790503 16.006319404209503 14.2817731347365
0.07668059579049213 11.647319404209501 15.035226865263503
15.8387731347365 31.263226865263498 13.202226865263505
17.2427731347365 30.3247731347365 13.942680595790506
8.809680595790496 6.150134326317513 11.6293194042095
14.1857731347365 6.590226865263496 5.871226865263502
8.955680595790497 21.0707731347365 25.0227731347365
12.226226865263499 16.5567731347365 20.4727731347365
11.879226865263497 19.7187731347365 13.114226865263497
18.871226865263502 29.958226865263505 27.230680595790503
11.3872268652635 5.726226865263499 21.212226865263496
11.7877731347365 11.2197731347365 17.9657731347365
26.3627731347365 23.023226865263503 22.9812268652635
31.2957731347365 6.0486805957905005 8.579680595790492
3.4297731347365 28.606680595790507 23.5882268652635
23.1377731347365 20.5497731347365 5.845226865263498
0.8007731347365006 19.8697731347365 0.41677313473650024
9.5627731347365 2.580226865263505 29.199226865263505
25.2797731347365 31.2393194042095 26.9523194042095
25.3022268652635 21.8063194042095 18.314680595790506
13.346680595790502 14.484134326317516 3.6511343263175036
26.4313194042095 30.5693194042095 18.1227731347365
13.791226865263503 24.648865673682508 29.1467731347365
16.9607731347365 15.067319404209503 30.6107731347365
18.744226865263506 21.877226865263502 17.3757731347365
32.0477731347365 23.8382268652635 13.6087731347365
28.6673194042095 15.844773134736501 32.02722686526349
10.492226865263497 3.485226865263499 13.517226865263503
7.4176805957905 4.432226865263495 12.751226865263497
0.40377313473650034 3.2602268652634976 24.7812268652635
24.5307731347365 30.9437731347365 25.939773134736498
23.4027731347365 20.294226865263504 10.734226865263501
31.828226865263495 29.800226865263504 11.7532268652635
26.7263194042095 22.468226865263496 23.3827731347365
1.2597731347365002 18.6567731347365 8.442680595790506
31.9327731347365 28.574226865263505 8.729226865263499
11.784226865263498 19.2107731347365 14.4457731347365
28.303773134736502 16.256226865263493 11.075226865263495
10.5337731347365 28.4902268652635 18.5697731347365
10.572226865263495 1.3396805957904974 21.5313194042095
1.905773134736501 13.7042268652635 15.8137731347365
6.790226865263499 4.1887731347365005 10.6797731347365
4.178226865263504 2.083226865263498 27.0623194042095
15.7497731347365 31.1577731347365 10.6466805957905
5.082319404209503 2.864226865263497 31.5227731347365
16.407319404209503 30.2866805957905 20.3197731347365
27.5103194042095 23.042226865263494 22.753773134736498
6.504773134736499 31.4787731347365 13.855226865263496
14.400226865263498 26.301226865263494 26.8047731347365
21.457680595790507 31.6062268652635 22.0117731347365
25.065226865263504 4.5016805957905035 8.209226865263496
11.3322268652635 16.695773134736502 9.117226865263497
8.312134326317505 30.308773134736498 23.925226865263504
5.871134326317502 22.0433194042095 2.4672268652634983
4.652226865263501 9.2772268652635 6.005226865263502
19.4212268652635 30.242226865263497 15.083226865263498
0.6116805957905029 17.075319404209502 17.0897731347365
8.4942268652635 11.415680595790505 24.375226865263507
8.6057731347365 10.225226865263501 25.232680595790498
12.5533194042095 5.1387731347365 14.229226865263499
13.6997731347365 8.352226865263496 1.0766805957904921
24.0857731347365 4.583680595790497 17.860680595790498
12.537226865263499 7.533226865263501 25.2453194042095
10.3812268652635 15.799226865263499 15.590680595790502
25.268226865263493 21.1047731347365 23.6597731347365
10.040680595790505 27.613226865263506 24.2162268652635
23.9947731347365 8.3857731347365 31.9512268652635
12.827226865263505 4.5542268652634945 14.9777731347365
10.4937731347365 7.3733194042095 17.5163194042095
9.1997731347365 3.5202268652635027 25.9313194042095
27.197226865263495 10.464226865263498 7.466226865263501
7.0227731347365 29.937226865263504 28.6657731347365
7.516680595790504 6.1387731347365 18.7282268652635
25.0743194042095 4.347226865263501 15.3777731347365
23.599226865263496 8.6526805957905 0.9672268652634983
25.800226865263504 4.3827731347364995 31.4267731347365
11.266680595790504 4.593226865263496 2.843226865263496
0.5432268652634988 13.1617731347365 15.645680595790495
6.1897731347365 15.681226865263504 11.4027731347365
30.692865673682505 0.6802268652634993 1.7817731347365005
26.145319404209502 6.219226865263501 8.066226865263495
12.447680595790501 27.2633194042095 16.5167731347365
14.3277731347365 26.361773134736502 21.825226865263495
7.836226865263498 21.314773134736498 25.033226865263494
17.2902268652635 15.897226865263498 10.6922268652635
16.488226865263506 10.932226865263495 0.0792268652635002
0.16722686526350117 28.780226865263494 22.173226865263494
22.7777731347365 7.316680595790501 15.0707731347365
29.169773134736502 6.3777731347365005 4.029226865263503
6.2977731347365005 29.050773134736502 29.369773134736498
3.880226865263502 11.065226865263504 21.7047731347365
6.516226865263498 17.706226865263496 29.427411943155505
5.409680595790505 21.6937731347365 0.14022686526350014
10.213680595790493 18.3973194042095 6.1167731347364995
29.468319404209502 15.273226865263503 17.8507731347365
8.336226865263498 16.8797731347365 15.828680595790502
20.5307731347365 27.940226865263504 4.035226865263503
21.2877731347365 3.1702268652635013 24.753773134736498
12.6567731347365 5.2417731347364995 9.654226865263503
5.6676805957905 30.864773134736502 29.050680595790496
15.114226865263497 29.754226865263497 29.6747731347365
0.6792268652634945 3.8847731347365 17.077134326317505
26.075226865263495 20.9487731347365 23.364773134736502
30.9403194042095 20.443226865263505 8.8047731347365
23.01168059579051 10.912680595790505 28.7697731347365
7.212226865263496 15.3797731347365 15.514226865263502
1.3946805957905042 19.625226865263507 3.4597731347364995
16.7342268652635 23.8047731347365 1.6447731347365
15.0507731347365 11.6157731347365 10.4877731347365
25.1562268652635 28.3797731347365 31.941226865263495
6.7916805957904955 8.447319404209498 1.5337731347365011
8.862226865263501 19.1467731347365 14.139226865263502
20.3357731347365 7.803773134736501 14.447226865263495
8.3967731347365 4.346226865263496 23.610680595790498
6.144680595790504 0.9737731347365006 21.483773134736502
17.1952268652635 12.5717731347365 31.2217731347365
18.4267731347365 22.450226865263495 16.8622268652635
2.0586805957905057 12.661319404209504 27.020226865263503
2.0182268652635003 9.477226865263496 5.154680595790495
25.8387731347365 22.1717731347365 0.4307731347364996
8.3907731347365 29.9187731347365 6.8766805957905035
9.658319404209504 10.1157731347365 2.8827731347364995
5.288226865263503 11.366319404209502 10.3717731347365
1.5742268652635047 23.6343194042095 26.274226865263493
28.2237731347365 12.9797731347365 10.450773134736501
26.050773134736502 32.0427731347365 28.5267731347365
16.152319404209504 2.2207731347365005 9.036226865263501
0.2732268652635028 4.745773134736501 19.1712268652635
12.9357731347365 1.6893194042095026 29.9437731347365
12.994680595790499 28.2493194042095 16.568680595790497
4.482226865263499 8.1766805957905 21.572226865263495
22.007226865263497 5.964588056844491 27.520319404209502
29.577226865263505 12.612226865263501 24.458226865263505
5.3907731347365 19.815226865263504 5.728226865263501
29.495773134736503 4.1736805957905005 1.388680595790504
5.302226865263499 25.733226865263497 15.371319404209498
21.626226865263497 8.293773134736501 14.812773134736501
19.449226865263505 26.806226865263504 21.697226865263495
5.857226865263499 20.477226865263496 6.901226865263503
22.864773134736502 14.412226865263499 27.450319404209502
22.675226865263504 3.5997731347365 2.5107731347364997
27.988773134736498 9.761680595790494 4.984226865263501
13.775226865263498 22.494226865263506 10.2277731347365
16.3636805957905 13.7652268652635 31.783226865263494
1.0616805957905058 8.4717731347365 24.878319404209503
22.4302268652635 16.4422268652635 26.8183194042095
7.799680595790505 30.628319404209503 14.937226865263504
10.416226865263503 3.455226865263505 7.7372268652635015
29.9473194042095 23.233773134736502 3.303226865263504
22.6297731347365 20.6937731347365 29.5593194042095
28.6436805957905 5.016226865263498 14.403319404209501
7.415773134736501 8.328680595790502 14.6132268652635
4.5457731347365 29.940773134736503 0.8932268652635003
6.095226865263498 27.120773134736503 15.251226865263497
2.328773134736501 11.453773134736501 15.424226865263499
0.9511343263175149 6.465226865263496 25.9643194042095
20.761226865263502 29.5407731347365 6.963773134736501
19.52368059579051 2.0782268652634954 16.9077731347365
20.650226865263498 10.1556805957905 2.5631343263175097
18.9957731347365 28.9863194042095 2.0572268652634946
3.5372268652634986 8.2562268652635 26.364680595790503
24.4302268652635 21.6877731347365 0.5352268652635033
28.812773134736503 16.366319404209502 17.3167731347365
17.5267731347365 1.4516805957904921 15.953773134736501
11.096226865263496 3.3426805957904975 14.900319404209501
31.874226865263502 28.056773134736503 22.133865673682507
9.273773134736501 11.1957731347365 24.4207731347365
9.4692268652635 21.616226865263506 24.812773134736503
27.239226865263497 13.272226865263498 12.434226865263504
9.9097731347365 19.349226865263496 6.6266805957905035
32.0533194042095 5.100319404209504 17.2072268652635
22.0737731347365 19.812226865263504 10.629226865263497
31.366773134736498 25.3507731347365 12.6282268652635
23.3286805957905 20.212226865263496 0.9857731347365011
30.606680595790507 12.296134326317514 5.962680595790502
21.709319404209502 28.9343194042095 4.4403194042095
20.420226865263494 10.1597731347365 12.3997731347365
26.9032268652635 26.1047731347365 12.504226865263497
3.6676805957905003 9.1556805957905 20.340226865263496
7.748226865263497 7.697226865263495 12.8267731347365
18.3537731347365 20.563226865263495 10.2682268652635
7.1892268652635 29.649226865263493 27.804226865263495
9.3112268652635 23.1847731347365 31.113319404209502
4.4277731347364995 27.2223194042095 21.8137731347365
14.520226865263503 22.8847731347365 12.647319404209501
8.2132268652635 5.344773134736501 26.6997731347365
3.8367731347365 14.8812268652635 3.221226865263496
29.5437731347365 16.2896805957905 10.028319404209501
24.632226865263497 21.425773134736502 2.901226865263503
18.9662268652635 2.6222268652634995 10.284226865263498
11.9133194042095 28.400226865263498 16.027226865263493
29.6357731347365 22.882226865263497 2.0267731347364997
18.4667731347365 19.6587731347365 3.4352268652634947
29.8153194042095 2.8467731347365 20.8157731347365
5.994226865263499 22.361226865263497 23.5307731347365
22.176226865263494 7.482226865263499 16.1867731347365
22.1157731347365 28.28586567368251 6.282226865263503
26.2962268652635 27.7267731347365 30.641680595790504
22.3103194042095 22.9542268652635 21.3123194042095
0.025680595790504412 9.8507731347365 12.024773134736499
7.0927731347365 29.4557731347365 13.4877731347365
24.3966805957905 25.105773134736502 30.2133194042095
25.7463194042095 6.125680595790499 9.054226865263495
22.575226865263495 28.852226865263496 5.062773134736501
21.1763194042095 15.1582268652635 29.776226865263503
10.482226865263499 0.3612268652634967 16.1777731347365
22.6062268652635 17.4757731347365 15.8517731347365
12.024773134736499 31.1987731347365 2.7717731347365007
25.419226865263504 15.019226865263498 13.346226865263496
26.7656805957905 31.3807731347365 28.6627731347365
4.849319404209499 5.346226865263496 22.9687731347365
17.578226865263495 5.4206805957905 31.764319404209502
17.147226865263498 23.2273194042095 0.8096805957904962
7.249680595790494 31.4607731347365 11.5957731347365
27.2836805957905 18.580680595790497 19.1867731347365
22.5087731347365 19.0457731347365 2.3182268652635045
8.764680595790495 23.5737731347365 1.1777731347364995
9.558319404209502 5.297226865263504 11.3777731347365
22.1832268652635 13.6023194042095 9.784226865263498
30.4787731347365 8.299773134736501 10.615226865263502
25.9553194042095 4.901226865263503 26.241773134736498
17.8263194042095 24.2057731347365 4.176680595790501
16.8123194042095 10.807319404209498 25.6922268652635
8.471226865263496 8.009680595790499 13.4577731347365
32.048226865263494 25.9473194042095 9.522226865263498
5.352680595790503 14.0212268652635 19.7197731347365
12.3857731347365 5.852226865263496 7.191773134736501
12.3787731347365 5.258773134736501 12.8172268652635
23.7497731347365 24.886226865263502 31.005226865263502
7.644226865263498 25.249680595790508 15.9253194042095
24.3652268652635 9.0773194042095 0.6177731347365008
0.3271343263175055 2.2537731347365 11.038680595790495
9.542319404209504 5.0907731347365 13.7277731347365
15.505680595790494 31.461226865263505 3.5882268652635005
25.465226865263496 22.721319404209503 30.5852268652635
16.8233194042095 14.062226865263504 6.794226865263504
24.5113194042095 5.399773134736501 10.525226865263498
21.746226865263502 8.683680595790506 2.2726805957905043
9.928226865263504 14.5517731347365 14.9017731347365
2.1617731347364995 13.297226865263504 28.186319404209502
7.6862268652634995 11.434226865263504 1.591773134736501
11.538226865263503 29.7623194042095 10.039226865263501
23.958226865263505 17.0247731347365 24.8487731347365
16.1562268652635 29.6802268652635 19.166226865263503
13.1162268652635 12.550680595790496 15.5457731347365
8.037226865263499 16.56613432631751 14.921773134736501
7.524773134736501 4.695680595790506 6.7376805957904935
4.876773134736501 29.6767731347365 25.6733194042095
4.591773134736501 17.227226865263496 13.2657731347365
4.5286805957905045 1.7922268652635012 6.638319404209501
7.3107731347365 13.413226865263503 25.3502268652635
25.965226865263496 1.126773134736501 29.011226865263502
2.6366805957904944 31.250773134736498 21.660773134736502
11.8137731347365 0.5992268652634962 23.5282268652635
24.1952268652635 24.7163194042095 0.6162268652634992
14.249226865263502 28.7587731347365 19.3867731347365
27.1247731347365 23.3567731347365 18.2497731347365
17.6167731347365 19.8987731347365 14.949226865263505
5.4632268652635005 3.5402268652634987 6.9732268652634986
10.154773134736502 26.440773134736503 0.15722686526350316
9.721226865263496 30.8427731347365 28.4873194042095
6.4907731347365 28.1917731347365 25.1397731347365
11.953226865263495 14.0217731347365 30.0867731347365
9.834226865263496 3.184226865263504 32.0947731347365
8.872773134736502 23.435226865263495 29.399226865263493
30.882680595790504 21.108226865263497 2.8236805957905062
5.334226865263496 6.255773134736501 3.039226865263501
16.0907731347365 15.703773134736501 12.401680595790495
13.901319404209499 0.42977313473650014 3.9237731347365
25.774226865263493 9.825226865263495 7.447226865263495
9.0227731347365 8.479226865263499 2.2132268652635005
10.2397731347365 15.275226865263498 3.3957731347364994
21.7393194042095 15.3217731347365 8.010226865263498
9.959226865263496 5.526226865263503 1.6482268652635028
1.6982268652635 17.0327731347365 2.7187731347365
3.4337731347364997 9.2717731347365 5.7887731347365
20.500773134736498 27.7567731347365 27.538773134736502
4.116226865263499 28.1673194042095 20.7147731347365
6.293680595790505 9.8112268652635 31.4027731347365
21.763226865263498 21.250319404209502 25.242226865263497
13.7137731347365 11.1577731347365 17.731680595790507
0.100226865263501 15.002680595790494 17.75868059579051
4.154226865263503 27.7717731347365 22.2132268652635
20.415865673682504 25.800865673682495 3.614865673682502
27.4857731347365 24.1093194042095 22.399226865263493
13.3932268652635 26.069226865263495 28.7483194042095
7.9946805957904985 22.0973194042095 0.11622686526349923
27.2192268652635 6.6997731347365 29.5433194042095
17.4902268652635 1.0006805957904987 2.5712268652635046
5.939680595790506 29.916773134736502 2.025226865263498
24.7927731347365 12.3277731347365 31.8033194042095
22.928773134736502 23.426226865263494 22.2627731347365
4.7727731347365 8.9617731347365 16.125226865263507
21.697226865263495 27.998773134736503 27.230773134736502
31.4403194042095 25.890226865263493 15.0397731347365
1.9292268652634945 31.497773134736498 22.0497731347365
0.7022268652635049 28.430773134736498 3.610680595790498
4.4717731347365 4.4392268652635 8.542226865263501
8.3657731347365 22.9597731347365 0.5447731347365004
23.9047731347365 10.246226865263502 0.7387731347364994
22.860226865263506 13.443226865263505 2.1876805957904963
26.310226865263495 11.084226865263496 0.08468059579050191
30.8337731347365 7.6377731347365 8.4893194042095
6.305226865263499 17.519680595790504 20.3112268652635
15.5337731347365 5.873226865263497 14.328226865263495
10.0677731347365 5.588680595790493 19.305319404209502
1.049226865263499 20.518226865263493 3.931773134736501
29.7987731347365 9.9757731347365 26.2303194042095
32.0697731347365 11.292226865263501 6.0907731347365
20.8057731347365 30.468226865263496 22.560226865263495
11.0687731347365 16.6123194042095 31.3177731347365
31.8652268652635 29.6153194042095 19.5097731347365
0.1622268652634986 27.9993194042095 21.4267731347365
22.811319404209502 24.669226865263504 22.9447731347365
15.861226865263497 4.9117731347364995 27.430319404209502
24.690680595790496 20.272226865263498 14.486226865263497
10.916226865263503 4.558319404209502 30.1742268652635
0.9797731347365009 30.0083194042095 19.3927731347365
2.7162268652635007 3.2092268652634957 4.819773134736501
8.188680595790501 22.8427731347365 3.8202268652635
19.429226865263495 24.492226865263497 16.598226865263506
5.651226865263503 29.7607731347365 14.3597731347365
23.2267731347365 31.1097731347365 3.0167731347365
8.3097731347365 8.3553194042095 24.6033194042095
9.497773134736502 28.1627731347365 26.2157731347365
14.5927731347365 20.6337731347365 1.6433194042095032
22.640226865263493 5.260680595790504 2.5586805957905057
18.6987731347365 4.018680595790499 10.213680595790493
6.080226865263505 5.9867731347365005 10.950226865263495
18.974226865263496 27.4327731347365 3.4616805957904973
5.7207731347365005 12.706680595790502 26.950226865263495
15.681226865263504 11.654226865263503 12.1462268652635
25.276226865263503 23.919773134736502 7.9437731347364995
5.6666805957904955 6.391226865263498 3.452226865263505
17.457134326317515 7.1481343263175035 8.4722268652635
6.644226865263498 4.4392268652635 8.2987731347365
29.6832268652635 28.294226865263504 17.1087731347365
28.9946805957905 15.592226865263498 30.1917731347365
8.541226865263503 0.038226865263503385 20.717226865263505
24.8177731347365 27.8047731347365 16.367226865263497
10.377226865263502 32.1556805957905 22.0642268652635
11.014226865263502 17.1087731347365 30.937773134736503
13.7072268652635 0.816226865263495 22.658226865263494
5.796773134736501 22.5137731347365 3.5372268652634986
13.6887731347365 30.774226865263493 6.5982268652634986
15.0107731347365 30.0467731347365 28.375773134736498
6.990226865263502 28.828226865263495 24.959226865263496
27.5727731347365 27.048226865263494 8.895226865263503
29.937773134736503 1.2107731347365007 1.424226865263499
19.584226865263496 30.0153194042095 19.771226865263493
19.7767731347365 26.897226865263498 6.4092268652634985
25.9643194042095 21.5663194042095 25.1577731347365
1.721226865263496 26.9387731347365 22.3322268652635
15.129226865263497 27.4077731347365 9.608226865263497
4.4606805957904925 1.6406805957904993 28.6767731347365
28.919773134736502 7.1372268652635 12.732680595790498
28.5497731347365 24.126226865263497 29.006226865263493
