29.805319404209502 18.629226865263497 11.043773134736501
27.8857731347365 29.6772268652635 27.4087731347365
13.059226865263504 5.5856805957904925 11.0366805957905
8.566226865263495 12.978411943155493 12.3793194042095
31.376773134736503 15.216773134736501 11.0187731347365
6.7477731347365 12.160226865263503 20.8227731347365
29.616319404209502 12.0647731347365 16.8827731347365
13.910226865263503 21.1953194042095 12.2567731347365
1.4816805957904933 13.578773134736501 4.302226865263499
10.924680595790505 3.1766805957905007 7.0396805957905
9.151773134736501 19.0603194042095 9.846226865263496
27.8533194042095 16.3513194042095 12.359226865263501
10.952226865263505 12.1406805957905 23.9933194042095
13.9357731347365 28.528680595790505 27.6377731347365
2.489680595790503 14.6947731347365 17.882226865263497
29.505226865263502 20.3067731347365 20.3877731347365
27.9123194042095 6.5737731347365 15.385226865263498
26.822226865263495 19.4737731347365 28.2373194042095
15.519680595790504 14.735226865263499 16.997226865263507
9.581680595790502 5.4627731347365 5.6492268652635005
6.0682268652635045 8.987680595790493 6.726773134736501
15.4052268652635 31.5633194042095 13.6736805957905
2.6636805957904954 8.5387731347365 0.8382268652635005
28.798226865263494 14.850319404209504 16.9407731347365
9.888226865263498 16.9662268652635 29.5723194042095
2.9302268652634993 21.0747731347365 26.3203194042095
26.740680595790508 1.2192268652635008 7.197226865263495
0.15722686526350316 29.498773134736503 4.932226865263495
24.9418656736825 23.941226865263495 4.294680595790496
16.4933194042095 3.6807731347364996 6.113773134736499
30.2132268652635 25.9587731347365 28.4293194042095
12.827226865263505 31.5677731347365 2.6617731347364995
30.7677731347365 3.6027731347365 11.858226865263497
23.312865673682495 28.196226865263505 24.0577731347365
13.273226865263503 6.529226865263503 9.840226865263496
30.7227731347365 29.623226865263497 2.8252268652634953
22.384226865263493 23.2767731347365 18.9157731347365
4.4597731347364995 13.560680595790501 28.2932268652635
28.538773134736502 0.7202268652634984 32.1767731347365
25.4557731347365 7.484680595790493 25.700226865263495
29.825226865263495 16.618411943155493 21.6772268652635
10.7987731347365 31.555773134736498 28.4297731347365
2.681773134736501 30.004226865263497 30.0767731347365
27.980773134736502 24.000773134736498 5.235773134736501
24.9567731347365 17.2787731347365 26.5732268652635
27.4062268652635 3.543226865263499 11.2237731347365
15.5357731347365 2.543680595790505 11.879134326317512
29.9843194042095 10.4297731347365 20.907226865263503
9.7987731347365 26.634226865263493 16.4453194042095
3.5687731347364995 2.597680595790493 11.547226865263504
0.9302268652634993 31.6567731347365 28.0163194042095
12.915226865263499 1.678226865263504 29.4413194042095
25.8717731347365 24.5607731347365 30.1303194042095
18.605226865263496 25.0797731347365 26.011226865263502
7.494226865263499 15.360773134736501 18.8933194042095
24.378773134736498 25.1417731347365 28.003226865263507
23.655226865263494 0.591773134736501 24.4722268652635
31.776319404209502 17.1017731347365 27.854226865263506
6.771773134736501 9.997773134736502 5.865226865263502
7.5542268652634945 12.575773134736501 4.897680595790504
3.5852268652635004 3.9121343263175135 28.422226865263504
7.9307731347365 15.1097731347365 13.950226865263495
6.090319404209499 10.0653194042095 6.6257731347365
11.238773134736501 19.7817731347365 20.749226865263502
27.1937731347365 21.0313194042095 12.5882268652635
12.866680595790498 18.03568059579051 27.4103194042095
1.2272268652634963 16.849226865263496 12.255226865263502
17.2197731347365 11.487226865263501 2.3407731347364997
13.389226865263502 22.270226865263503 22.0432268652635
18.1327731347365 22.7497731347365 13.6377731347365
27.7573194042095 5.4877731347365 26.2693194042095
8.9867731347365 23.3097731347365 3.3226805957905015
1.2672268652635026 12.346226865263496 2.8072268652634946
5.680319404209502 4.614680595790503 30.765226865263493
21.2327731347365 18.1383194042095 23.094865673682506
12.264773134736501 26.403680595790505 20.6622268652635
15.979226865263506 21.959226865263496 12.738773134736501
27.6742268652635 21.8473194042095 19.7877731347365
13.4572268652635 30.863319404209502 0.45168059579049213
17.756773134736502 23.043680595790505 29.3327731347365
12.8477731347365 0.6902268652635044 28.5847731347365
14.360680595790498 7.2347731347365 31.5297731347365
15.039226865263501 6.5813194042094985 16.881773134736502
6.1282268652635 8.7687731347365 7.777773134736501
27.2587731347365 25.3673194042095 20.3697731347365
30.358773134736502 16.5103194042095 7.267680595790495
3.236680595790503 22.0857731347365 26.6663194042095
19.499226865263502 25.9512268652635 20.0248656736825
6.808226865263499 1.9656805957905021 16.2107731347365
3.890319404209503 17.2677731347365 25.616226865263506
8.150319404209501 22.2737731347365 11.680680595790506
16.925680595790496 24.533226865263494 3.075773134736501
10.4347731347365 9.992226865263497 5.7317731347365
27.1457731347365 11.128319404209503 13.385226865263498
29.125773134736498 10.7687731347365 22.8347731347365
31.0893194042095 22.7667731347365 31.619226865263506
14.098226865263499 29.943226865263505 28.312773134736503
25.5177731347365 5.8527731347365 24.742773134736503
2.0172268652635026 7.134680595790499 0.7526805957904941
4.4482268652635 26.925226865263504 6.604226865263499
31.4863194042095 20.8257731347365 16.9267731347365
30.878773134736498 10.279680595790495 6.3977731347365
20.0307731347365 7.1727731347365005 26.9357731347365
9.709226865263496 28.733226865263497 15.725226865263501
27.921680595790505 5.436319404209502 15.934134326317505
27.001226865263497 1.8167731347365006 29.751773134736503
16.020226865263503 8.606680595790493 18.5433194042095
30.9677731347365 16.0797731347365 7.287226865263499
20.0822268652635 9.995680595790503 26.2797731347365
29.488773134736498 23.3393194042095 28.553226865263504
10.084680595790502 23.4477731347365 10.4632268652635
22.830226865263505 0.5727731347365008 1.6532268652634983
28.1813194042095 21.7737731347365 8.8936805957905
16.1847731347365 15.5276805957905 29.8963194042095
26.788773134736502 25.8687731347365 3.502226865263502
7.701680595790492 26.849226865263496 2.809226865263504
5.912226865263499 12.947226865263495 28.122773134736498
0.6921343263175146 0.4187731347365009 18.1397731347365
15.962226865263496 9.734680595790493 8.340773134736502
4.020226865263503 27.4152268652635 7.103226865263501
14.444680595790501 24.399226865263493 22.373226865263497
2.749680595790494 10.0337731347365 13.104226865263499
17.280226865263494 29.003865673682498 19.9547731347365
0.8117731347364998 22.999226865263502 2.4467731347364996
17.6033194042095 20.0833194042095 14.486226865263497
24.625319404209502 26.830226865263505 22.1062268652635
17.917226865263494 15.8967731347365 19.120226865263497
29.5497731347365 30.559773134736503 25.538226865263503
8.482773134736501 22.794226865263504 12.0727731347365
4.7477731347365 10.889773134736501 18.1907731347365
13.799226865263499 0.38722686526350003 2.0822268652635003
17.2437731347365 25.0717731347365 13.514226865263502
12.833680595790497 24.4572268652635 13.5647731347365
19.8717731347365 6.3537731347365 7.010680595790504
28.5703194042095 28.208226865263505 2.6342268652635
28.1317731347365 18.542226865263494 8.5486805957905
3.5097731347365 11.043226865263499 8.639773134736501
13.6697731347365 23.9572268652635 12.296680595790505
11.3382268652635 26.3287731347365 4.949226865263505
22.0947731347365 25.2402268652635 2.4542268652635
26.7647731347365 17.0637731347365 27.468226865263496
29.6737731347365 16.325226865263495 7.3977731347365
26.858226865263497 28.9572268652635 3.843226865263496
18.7207731347365 4.892226865263503 5.675226865263504
16.5792268652635 18.90168059579051 29.425226865263504
21.657226865263503 10.677680595790505 4.9367731347365
26.357319404209502 9.214226865263498 12.985680595790498
6.715226865263496 22.081226865263496 2.046773134736501
26.2897731347365 4.1487731347365 24.228680595790507
8.9467731347365 10.4332268652635 13.8037731347365
21.375226865263507 31.254865673682502 13.2162268652635
19.3262268652635 11.2727731347365 26.571680595790497
0.10922686526350134 28.7653194042095 19.1353194042095
7.434680595790496 2.819226865263495 26.2757731347365
19.1507731347365 25.3717731347365 19.291773134736502
13.6867731347365 28.4323194042095 26.9827731347365
26.450226865263495 18.3877731347365 16.6337731347365
15.225319404209504 10.965226865263496 8.6087731347365
1.2267731347365007 4.0072268652634975 0.2952268652635013
2.9222268652635037 30.2317731347365 10.5037731347365
8.309226865263504 22.625226865263507 10.894226865263498
28.023226865263503 19.9493194042095 16.340680595790502
12.1657731347365 17.5942268652635 19.9307731347365
11.903319404209501 12.991865673682511 5.351226865263499
23.1263194042095 15.943226865263505 16.5087731347365
25.503226865263507 6.821226865263505 20.9757731347365
9.557226865263495 15.5257731347365 14.365226865263502
1.7161343263175155 19.2847731347365 16.6032268652635
6.7072268652635 9.510226865263498 19.846226865263496
17.0817731347365 20.114773134736502 21.5517731347365
27.3687731347365 18.2037731347365 28.6033194042095
20.3243194042095 9.4302268652635 7.720226865263498
0.5301343263175085 7.332319404209503 9.436773134736502
15.802680595790505 8.4517731347365 10.7957731347365
23.4657731347365 2.354680595790498 26.0177731347365
26.997226865263507 28.561773134736498 10.633680595790494
1.0002268652634996 9.6307731347365 17.1532268652635
15.5977731347365 6.956680595790502 31.3907731347365
13.4617731347365 20.7283194042095 26.262226865263493
5.7916805957904955 24.250226865263507 19.633226865263502
7.9277731347364995 7.8337731347365 31.657319404209503
14.5737731347365 10.382680595790504 16.581226865263496
10.900226865263498 31.5642268652635 12.422226865263504
10.681226865263504 2.5382268652635034 11.1317731347365
27.101226865263506 27.072226865263495 12.5612268652635
0.6677731347364997 19.741319404209502 12.2587731347365
20.5497731347365 13.8142268652635 28.1677731347365
26.269226865263498 28.131226865263493 9.836680595790497
20.628773134736498 29.7167731347365 5.014319404209498
27.1243194042095 27.7523194042095 1.4122268652634986
3.675226865263504 23.6643194042095 11.3807731347365
22.711226865263505 6.8482268652634986 31.504226865263497
29.934773134736503 14.6837731347365 23.474226865263496
26.818226865263505 29.381865673682498 10.563226865263495
19.822226865263495 29.872226865263507 28.4392268652635
24.669226865263504 23.2867731347365 30.8957731347365
1.8557731347365003 20.305680595790506 17.5267731347365
8.8352268652635 20.8142268652635 12.2776805957905
25.619773134736498 25.1687731347365 4.011319404209498
11.006680595790499 0.9182268652634988 28.0067731347365
6.7682268652635 24.6413194042095 25.9857731347365
12.920226865263501 15.3303194042095 6.7947731347365
24.203319404209502 32.1213194042095 14.6633194042095
30.3202268652635 1.5132268652634977 24.400226865263498
12.702680595790497 27.4767731347365 23.6763194042095
26.544773134736502 23.008226865263502 29.6053194042095
29.1922268652635 12.6367731347365 21.8567731347365
16.5817731347365 26.5837731347365 8.9027731347365
2.0596805957904962 5.716773134736501 23.0342268652635
12.212226865263496 19.124680595790508 12.536319404209504
16.431680595790496 11.971319404209499 3.1802268652634993
17.220226865263506 13.3717731347365 2.8762268652634972
28.5237731347365 4.931226865263504 26.8533194042095
16.132226865263497 6.932680595790501 23.3637731347365
30.922773134736502 16.5827731347365 3.3652268652635016
23.8597731347365 11.024773134736499 18.2717731347365
22.254226865263497 3.2627731347365003 20.2173194042095
12.474680595790502 5.178773134736501 6.505226865263502
28.60513432631751 14.5993194042095 23.2252268652635
17.2753194042095 6.183680595790506 22.9217731347365
16.6967731347365 17.639226865263502 13.540226865263499
2.5272268652635006 23.217226865263505 3.093226865263496
14.617680595790503 3.002680595790494 10.9146805957905
28.279226865263503 14.787226865263499 10.4587731347365
11.693226865263505 8.6402268652635 30.831319404209502
11.235680595790498 22.426226865263494 5.383773134736501
31.747773134736498 13.462773134736501 4.499680595790494
3.043773134736501 17.140226865263493 13.4287731347365
15.118226865263502 8.540226865263499 17.79168059579051
20.8472268652635 0.41722686526350117 25.4437731347365
12.541680595790496 3.4022268652635006 11.581773134736501
18.273319404209502 29.052680595790505 6.178226865263504
30.4122268652635 14.211226865263498 30.8593194042095
16.351680595790498 16.8757731347365 30.035773134736502
10.5242268652635 1.2342268652635013 2.5792268652635
15.878680595790499 4.328680595790502 10.300226865263504
2.026226865263503 21.726226865263506 3.5102268652634976
8.139773134736501 28.4637731347365 1.9897731347365006
27.3713194042095 8.6087731347365 12.8247731347365
20.0197731347365 30.119773134736498 31.5867731347365
13.4557731347365 1.3472268652635009 18.3037731347365
25.6763194042095 28.259226865263493 11.2682268652635
9.4972268652635 24.323680595790506 4.1586805957905
8.7817731347365 29.76168059579051 18.947226865263495
4.440773134736501 18.8467731347365 7.8467731347365
8.524773134736499 13.4332268652635 3.1297731347364994
23.7427731347365 3.920319404209504 7.6342268652635
24.117226865263497 26.230226865263496 29.4147731347365
10.5486805957905 32.0943194042095 8.813319404209498
13.8997731347365 1.3706805957905033 28.3857731347365
26.922773134736502 23.8142268652635 10.9632268652635
31.3643194042095 3.3636805957904983 24.2727731347365
28.4647731347365 14.0576805957905 11.2277731347365
22.276319404209502 17.154226865263503 20.9477731347365
4.988773134736499 13.420226865263501 7.741319404209502
14.3962268652635 7.1922268652635 10.986226865263497
15.593226865263496 4.1196805957904985 26.252226865263502
11.914319404209504 12.260680595790504 26.2787731347365
19.562226865263504 6.542226865263501 26.3447731347365
15.5347731347365 8.5332268652635 13.0687731347365
2.4476805957905015 0.6822268652634946 3.3757731347365
10.609226865263501 30.562680595790496 17.087226865263496
1.7067731347365012 30.7577731347365 29.613226865263506
8.1892268652635 5.0926805957904975 27.4607731347365
7.993226865263502 3.2896805957905 0.8936805957904994
29.046680595790505 9.7617731347365 20.3117731347365
27.9087731347365 13.6267731347365 22.654226865263503
9.848680595790498 0.42758805684448475 28.5847731347365
21.5642268652635 4.400680595790504 0.45677313473650116
3.649773134736501 21.0927731347365 6.971226865263496
18.2677731347365 3.4206805957905004 31.7747731347365
15.2757731347365 9.575226865263495 15.618865673682507
21.449226865263505 16.6157731347365 19.328226865263495
29.4812268652635 4.361226865263497 11.140319404209503
17.909680595790505 22.803773134736502 14.0503194042095
3.7856805957904953 14.572226865263495 1.891680595790504
2.1056805957905027 26.1677731347365 7.481226865263501
4.735773134736501 7.260226865263498 19.3137731347365
28.0247731347365 27.0397731347365 5.267226865263503
18.264226865263502 27.1217731347365 26.6967731347365
2.783773134736501 27.9727731347365 5.3987731347365
6.161226865263501 9.022226865263498 4.959226865263496
17.3233194042095 20.795226865263494 27.898319404209502
9.566319404209498 15.216680595790493 15.6927731347365
4.2453194042095 12.714226865263498 28.732226865263506
30.3082268652635 13.7742268652635 24.2257731347365
25.626773134736503 32.0087731347365 20.8033194042095
2.2567731347365 16.2267731347365 17.7013194042095
15.6173194042095 29.128865673682498 12.633319404209498
19.2387731347365 28.887226865263493 26.5867731347365
29.291226865263503 11.065226865263504 9.6907731347365
28.683773134736498 20.063226865263495 8.634680595790499
9.470226865263498 23.374226865263502 20.4808656736825
16.7187731347365 15.5847731347365 14.534680595790505
22.348226865263506 11.142773134736501 17.6982268652635
1.0122268652635 29.2007731347365 3.7002268652634953
11.8587731347365 31.068226865263505 17.9707731347365
28.747319404209502 26.1857731347365 8.1222268652635
4.3917731347365 16.898226865263503 31.799319404209502
21.6613194042095 30.866226865263506 13.629226865263497
12.755226865263502 20.5197731347365 10.6753194042095
14.764680595790495 22.7567731347365 14.1997731347365
5.1662268652635035 12.800226865263504 8.653226865263498
5.9017731347365 14.6317731347365 6.163680595790495
8.535226865263503 1.8082268652634994 28.681773134736503
8.238773134736501 10.4422268652635 4.143680595790499
1.4072268652635032 8.638226865263498 0.7862268652635009
20.5617731347365 6.520226865263503 20.5223194042095
2.165773134736501 12.296319404209502 2.0907731347364997
11.615226865263502 12.756319404209503 24.3833194042095
16.4877731347365 21.134226865263493 15.2532268652635
14.362680595790493 21.260680595790504 0.2462268652635018
8.4777731347365 21.879226865263497 4.8312268652634955
18.9697731347365 29.736226865263497 27.7187731347365
27.519226865263498 3.841773134736501 21.050773134736502
17.8292268652635 3.4512268652635 6.470226865263498
12.631319404209503 17.5006805957905 19.390226865263493
29.363773134736498 6.484226865263501 4.4487731347365
3.5517731347365 6.8822268652634975 3.314680595790506
3.6632268652635034 14.2562268652635 26.8247731347365
11.8157731347365 17.0522268652635 5.637680595790499
31.6712268652635 4.1037731347365 14.790226865263499
21.8537731347365 12.819226865263495 25.1247731347365
16.8997731347365 11.867773134736499 26.4487731347365
32.1737731347365 19.519226865263498 21.764226865263502
19.3347731347365 10.373226865263497 27.9037731347365
6.9997731347365 3.319226865263495 21.0937731347365
20.854226865263506 13.368226865263502 30.6187731347365
5.059773134736501 20.619226865263506 11.946226865263505
16.7057731347365 1.249680595790494 27.748773134736503
17.788226865263503 3.511773134736501 31.8977731347365
9.932226865263495 23.7137731347365 12.428226865263504
12.373226865263497 22.6807731347365 15.4572268652635
29.6707731347365 4.522319404209501 16.3507731347365
7.596226865263496 25.8562268652635 20.2842268652635
7.116680595790498 9.7453194042095 18.5837731347365
29.4797731347365 0.9942268652634993 8.1917731347365
1.9472268652634952 21.8963194042095 9.867680595790503
3.8177731347365 24.3652268652635 32.13422686526349
12.9197731347365 30.866773134736498 27.4353194042095
1.3976805957905043 0.8022268652634992 8.8752268652635
8.7192268652635 2.7502268652634996 1.9266805957905007
14.3707731347365 25.639319404209502 13.8842268652635
13.9297731347365 23.0522268652635 22.0287731347365
32.1707731347365 5.227226865263496 25.483773134736502
8.5657731347365 25.2077731347365 19.7037731347365
20.922226865263504 1.3836805957904943 19.2523194042095
16.386226865263502 19.4887731347365 27.2777731347365
22.0547731347365 17.647226865263498 21.410226865263503
1.4816805957904933 2.053226865263504 8.4397731347365
11.0182268652635 14.947680595790501 6.002680595790494
18.2787731347365 20.607680595790498 29.3853194042095
0.5902268652634959 24.0957731347365 1.3982268652635028
22.4097731347365 11.295226865263501 6.6317731347365
26.4967731347365 22.644226865263498 10.729226865263499
30.2567731347365 6.443680595790497 9.6772268652635
17.9927731347365 12.8707731347365 3.5046805957905036
28.006226865263493 6.9907731347365 14.1783194042095
29.795226865263494 13.008226865263502 2.029226865263503
25.677319404209502 10.2742268652635 14.196226865263505
17.9317731347365 18.76168059579051 19.071226865263505
17.5377731347365 25.6058656736825 8.850680595790493
30.7667731347365 4.743226865263502 9.633226865263502
31.7227731347365 28.575319404209502 11.9877731347365
3.6946805957905013 17.1337731347365 1.8732268652634971
6.782226865263503 17.217226865263505 26.5137731347365
14.035226865263503 7.441226865263495 0.2987731347364999
16.337226865263496 27.3487731347365 0.2832268652635008
1.6862268652634995 17.191226865263495 24.384226865263493
26.497226865263507 23.855773134736502 15.037226865263499
29.4967731347365 15.999680595790508 5.344134326317516
12.7797731347365 12.080226865263505 13.1857731347365
15.616319404209502 23.3157731347365 24.044226865263504
6.358680595790503 14.215680595790502 28.2053194042095
20.9506805957905 7.7287731347365 12.126226865263497
23.4782268652635 26.1507731347365 14.6367731347365
15.344773134736501 16.522226865263498 23.545226865263494
7.072773134736501 25.8837731347365 17.052319404209502
31.3443194042095 1.3327731347365006 7.8247731347365
7.962226865263496 22.5797731347365 12.395226865263503
9.7772268652635 13.925226865263504 14.537226865263499
1.5952268652634984 31.250319404209502 9.815226865263504
15.7577731347365 27.8187731347365 17.9467731347365
9.456773134736501 30.0433194042095 29.907319404209503
23.9296805957905 10.796226865263499 6.0037731347365
12.330226865263505 7.128680595790499 24.5067731347365
22.9093194042095 25.055319404209502 13.2757731347365
9.9207731347365 21.827226865263505 6.312680595790496
12.200680595790502 32.114773134736495 7.5702268652635
21.230226865263496 18.162680595790505 0.9176805957905003
18.9377731347365 2.2506805957904987 32.110773134736505
3.8122268652635043 26.452226865263505 7.3202268652635
2.0756805957905016 12.613680595790498 29.017319404209502
20.2747731347365 0.7392268652634968 24.241773134736498
7.0242268652635005 19.730226865263496 17.382226865263497
29.3063194042095 6.140680595790499 25.613226865263506
5.705226865263505 21.2437731347365 4.876773134736501
22.5117731347365 30.0307731347365 13.3177731347365
15.6312268652635 12.787226865263499 18.3397731347365
1.8851343263175124 20.7647731347365 30.2102268652635
22.121226865263502 25.2626805957905 0.7796805957904951
16.7297731347365 26.248226865263497 24.776319404209502
22.1783194042095 10.578773134736501 9.544680595790496
26.8163194042095 15.357773134736501 7.975226865263501
22.721319404209503 8.9727731347365 18.117226865263497
16.9697731347365 26.0673194042095 25.9603194042095
4.4367731347365 29.9477731347365 12.352226865263496
29.0457731347365 7.287226865263499 15.032226865263503
20.416226865263503 29.3307731347365 16.4417731347365
10.4467731347365 11.7437731347365 5.174226865263499
21.1707731347365 12.700773134736501 26.060226865263495
24.051226865263494 8.372680595790499 9.348226865263499
29.6706805957905 26.439865673682505 27.0297731347365
30.2837731347365 1.751773134736501 7.599226865263496
22.9027731347365 30.244865673682497 15.3917731347365
20.5183194042095 19.7667731347365 24.0227731347365
3.5197731347365 22.852226865263496 19.294226865263504
9.2217731347365 10.485680595790498 17.6813194042095
4.637680595790499 27.4967731347365 7.2597731347365
8.671773134736501 21.7252268652635 18.152226865263493
31.366773134736498 11.963319404209503 3.8817731347365
29.5953194042095 16.523226865263503 30.2393194042095
10.1047731347365 11.345680595790498 13.005226865263502
7.453226865263495 29.012226865263493 8.155134326317508
23.7203194042095 16.7252268652635 19.592226865263505
14.315226865263504 22.1567731347365 1.2501343263175073
23.9152268652635 0.9206805957905004 28.375226865263507
8.3142268652635 27.5822268652635 16.1597731347365
1.8217731347364996 27.044226865263504 18.8247731347365
5.419226865263504 15.601680595790498 22.3713194042095
29.397226865263498 15.797226865263504 10.0792268652635
1.1417731347364999 18.2487731347365 26.3202268652635
27.851226865263506 17.3967731347365 8.456773134736501
29.562226865263504 26.807226865263495 6.7012268652635
1.0027731347365005 30.375773134736498 3.836134326317506
15.8937731347365 3.314680595790506 26.7177731347365
3.4812268652635012 9.852226865263496 10.691226865263495
0.7397731347365006 17.312680595790496 28.397226865263498
23.733680595790503 19.2013194042095 16.3427731347365
22.236773134736502 11.2347731347365 25.925773134736502
25.9212268652635 25.788226865263503 5.961226865263498
25.123773134736503 31.275411943155504 7.1967731347365
7.627680595790494 26.0762268652635 2.7172268652634983
30.4697731347365 20.9723194042095 21.605226865263496
22.3047731347365 10.270680595790495 16.932226865263495
21.5987731347365 29.1913194042095 12.255226865263502
14.035226865263503 21.992226865263497 14.609680595790493
14.8087731347365 22.495226865263497 21.1123194042095
10.4478656736825 7.6158656736825066 31.6263194042095
7.9872268652635015 27.0063194042095 1.4957731347365009
1.3792268652634974 25.9542268652635 24.15168059579051
18.0307731347365 0.6436805957904994 25.9607731347365
28.8817731347365 25.2613194042095 29.6377731347365
6.720226865263498 16.103680595790507 13.8847731347365
27.131226865263493 5.6492268652635005 2.6312268652635
4.2102268652635 8.482226865263499 9.2382268652635
16.823680595790506 3.3347731347364995 11.4692268652635
7.4676805957904975 23.4037731347365 10.9632268652635
13.1522268652635 30.8317731347365 8.2532268652635
4.2317731347365 30.1733194042095 0.039226865263501054
16.4237731347365 1.0742268652635047 28.9093194042095
17.9627731347365 10.634680595790499 27.5787731347365
21.3082268652635 23.9767731347365 4.9162268652635035
1.5936805957905023 16.8453194042095 18.780226865263494
29.161226865263494 15.8078656736825 6.367226865263497
18.4307731347365 15.3657731347365 19.435226865263495
29.521226865263493 14.0417731347365 20.2633194042095
9.290680595790505 29.0977731347365 2.0686805957904966
4.836680595790497 17.184226865263504 0.14622686526350037
11.6367731347365 3.2982268652635014 12.6257731347365
30.246865673682507 0.4176805957905003 25.0937731347365
17.7657731347365 27.8543194042095 19.509226865263493
10.9517731347365 17.2992268652635 18.2167731347365
15.933680595790506 18.585411943155492 13.212773134736501
1.732680595790498 27.9877731347365 4.4077731347365
27.3247731347365 9.3322268652635 27.8243194042095
21.1062268652635 6.566773134736501 13.2423194042095
19.270226865263503 22.003226865263507 22.7207731347365
10.0187731347365 19.890226865263493 20.0087731347365
20.7787731347365 25.1523194042095 4.688226865263495
7.428680595790496 5.297226865263504 7.298226865263501
21.5177731347365 30.2737731347365 1.4762268652634987
24.277226865263493 29.907319404209503 23.136226865263502
30.936319404209502 7.129226865263497 25.997319404209502
32.0617731347365 4.084226865263496 23.509226865263493
19.002226865263502 2.347226865263501 31.251226865263497
28.494319404209502 12.121226865263502 20.030226865263494
6.550226865263504 3.979680595790498 11.3722268652635
25.5187731347365 28.894226865263498 11.819680595790501
23.619226865263506 15.6407731347365 17.881226865263493
11.996680595790494 8.108226865263497 9.9207731347365
11.0977731347365 16.801226865263494 16.830226865263505
22.6892268652635 10.226226865263499 8.3127731347365
3.732773134736501 31.138226865263498 12.900226865263498
10.4422268652635 21.7757731347365 23.3697731347365
23.7872268652635 18.400226865263498 28.390226865263493
27.060226865263495 5.8087731347365 24.9783194042095
1.1053194042094994 17.412680595790505 27.5327731347365
12.1197731347365 13.2877731347365 0.4413194042094979
17.4602268652635 31.0287731347365 26.1107731347365
11.3442268652635 9.6757731347365 12.2227731347365
8.971226865263496 24.3033194042095 2.2882268652635034
24.927773134736498 9.444226865263495 12.578226865263495
12.92913432631751 15.3227731347365 5.3887731347365
9.883226865263502 9.1993194042095 10.8632268652635
0.5092268652634999 12.475319404209504 5.809680595790496
3.7952268652635013 20.049865673682504 6.002134326317503
26.175226865263504 23.855773134736502 6.376134326317512
25.191226865263495 4.5152268652635 5.181773134736501
27.4452268652635 23.3357731347365 28.739773134736502
8.791680595790496 22.2128656736825 4.4117731347364995
21.1367731347365 6.2277731347365 19.1677731347365
20.983773134736502 21.7923194042095 18.2657731347365
13.566680595790501 0.5922268652634983 24.6823194042095
20.9263194042095 6.876226865263497 14.3107731347365
22.385226865263498 7.163226865263503 29.2943194042095
27.4207731347365 19.9347731347365 11.103319404209504
18.3817731347365 16.390226865263493 8.0152268652635
9.2337731347365 8.709773134736501 6.0157731347365
15.371680595790494 13.9206805957905 31.5857731347365
25.3407731347365 8.583319404209501 7.5426805957905
22.6742268652635 11.7197731347365 16.6737731347365
16.2517731347365 9.6192268652635 3.0302268652635007
27.182226865263495 15.578773134736501 10.462226865263496
7.662773134736501 21.527226865263493 17.6627731347365
3.697226865263495 18.9602268652635 7.746226865263502
22.9587731347365 31.500319404209502 16.056680595790496
29.1457731347365 27.238773134736498 31.021226865263493
15.6796805957905 15.5337731347365 31.0907731347365
1.1132268652634991 25.0487731347365 0.32368059579050623
26.057226865263495 23.6397731347365 14.1342268652635
29.876773134736503 26.789226865263494 5.597680595790493
20.463680595790507 29.739773134736502 28.2898656736825
12.998680595790503 1.066226865263495 18.3682268652635
27.6747731347365 27.292226865263494 6.168773134736501
29.989773134736502 7.4067731347365005 4.584226865263496
17.056226865263504 20.0197731347365 19.753226865263507
23.4983194042095 24.0833194042095 29.822226865263495
16.3167731347365 30.348226865263506 8.4457731347365
4.8087731347365 29.299319404209502 12.568226865263505
9.699680595790497 23.0503194042095 2.995773134736501
8.524773134736499 12.8887731347365 13.261226865263502
5.854226865263499 14.293680595790505 20.5777731347365
6.8977731347365 16.8142268652635 14.0552268652635
29.9493194042095 20.8743194042095 20.5787731347365
29.3337731347365 4.219680595790493 30.689773134736498
9.9557731347365 11.7207731347365 4.108226865263497
3.447773134736501 16.974773134736502 0.8256805957905016
7.752680595790494 6.1592268652634985 27.848865673682496
12.4026805957905 1.114680595790503 30.958226865263505
20.62768059579051 5.002680595790494 6.197226865263495
29.801226865263494 8.925226865263504 1.2302268652634964
1.6892268652634996 6.032226865263503 24.800226865263504
23.812226865263504 17.7367731347365 0.9942268652634993
12.119680595790499 23.1857731347365 11.879226865263497
8.3277731347365 26.812226865263504 20.099773134736502
14.5767731347365 27.2513194042095 25.2777731347365
15.7192268652635 29.687226865263504 2.033226865263501
14.1437731347365 7.782226865263503 20.706319404209502
26.2937731347365 29.2483194042095 21.6327731347365
28.565773134736503 10.9297731347365 20.1062268652635
9.992773134736499 19.1817731347365 10.177773134736501
17.155226865263494 20.4997731347365 14.1097731347365
28.6562268652635 3.2621343263175078 30.202226865263505
30.6557731347365 14.5593194042095 21.429226865263495
28.0287731347365 29.3803194042095 26.652226865263493
20.845680595790498 4.121680595790494 7.478226865263501
16.3537731347365 10.094680595790493 1.6222268652634995
16.7657731347365 6.853588056844501 21.797226865263504
10.5152268652635 31.9512268652635 16.3583194042095
2.569226865263495 24.291773134736502 19.4347731347365
21.587319404209502 1.3006805957904959 18.3307731347365
8.2177731347365 9.291226865263503 10.3047731347365
24.680773134736498 20.419773134736502 26.2203194042095
9.7347731347365 27.5277731347365 2.3962268652635004
25.0633194042095 23.5927731347365 16.714226865263505
11.7832268652635 27.1466805957905 10.873226865263497
21.1742268652635 6.002319404209498 18.748680595790503
5.724226865263496 24.9517731347365 0.2322268652634989
25.950319404209502 17.964226865263505 27.3947731347365
22.343226865263496 25.4133194042095 13.864226865263497
18.2407731347365 12.464226865263498 24.380226865263502
16.1477731347365 7.069226865263495 9.7947731347365
19.173226865263494 31.1093194042095 32.1313194042095
17.8622268652635 18.587226865263496 14.8297731347365
29.3622268652635 19.567773134736502 20.497319404209502
7.026680595790495 3.384680595790499 25.5882268652635
0.30322686526350395 17.360226865263506 10.398680595790495
4.715680595790502 10.7227731347365 8.3782268652635
31.059773134736503 6.7867731347364995 10.231680595790493
29.149226865263493 14.7592268652635 7.414226865263501
18.979226865263506 8.940680595790496 27.333226865263505
29.2107731347365 25.437680595790496 28.1023194042095
11.1376805957905 20.8352268652635 22.288226865263503
31.6397731347365 5.004680595790504 16.114226865263497
3.110680595790498 10.437226865263504 8.2987731347365
17.4377731347365 5.392680595790495 2.7106805957904925
13.612226865263501 19.8787731347365 14.212226865263496
6.174773134736501 24.6652268652635 11.182226865263495
25.0717731347365 12.3807731347365 23.5577731347365
19.6447731347365 16.7067731347365 22.9177731347365
28.8003194042095 5.700680595790502 5.312773134736501
15.304319404209497 5.248226865263497 27.188226865263495
14.9077731347365 6.9422268652635 11.829319404209503
21.2237731347365 22.0267731347365 5.218226865263496
8.962680595790502 21.246226865263502 18.593226865263496
30.4877731347365 21.1823194042095 31.488773134736498
11.0002268652635 8.510134326317512 31.0107731347365
11.4087731347365 24.878226865263507 3.7577731347364995
4.667226865263501 22.3643194042095 11.837773134736501
11.307226865263495 30.4033194042095 22.7847731347365
13.6828656736825 2.938226865263495 24.9537731347365
19.6152268652635 11.364226865263497 1.3892268652635025
14.6312268652635 22.605773134736502 32.0947731347365
6.2912268652635035 15.8412268652635 12.078773134736501
17.946680595790497 21.198134326317515 22.8797731347365
2.3307731347365 28.6477731347365 5.6432268652635
25.300226865263504 25.9797731347365 29.8467731347365
10.019226865263498 29.9817731347365 20.9297731347365
2.7737731347364996 29.681773134736503 21.1922268652635
3.0667731347365006 16.311319404209502 12.873226865263497
16.0797731347365 31.938226865263495 23.1526805957905
14.4107731347365 18.852226865263496 13.4692268652635
13.0347731347365 26.4833194042095 12.092226865263498
20.477680595790503 9.165319404209502 25.8173194042095
11.754226865263497 0.0412268652635035 3.764773134736501
24.359134326317516 4.915134326317514 0.08868059579049259
26.2687731347365 27.753319404209503 3.0256805957905044
26.6943194042095 20.2177731347365 6.6797731347365
24.8997731347365 22.8112268652635 30.303226865263504
15.2237731347365 25.9597731347365 25.3622268652635
0.5947731347365011 31.015226865263493 29.187773134736503
30.696226865263505 15.758226865263502 5.406680595790505
26.107226865263506 4.300773134736501 10.7337731347365
3.9417731347365006 17.910773134736502 25.6853194042095
20.997226865263507 32.1637731347365 9.364226865263497
20.565226865263504 24.9193194042095 3.947773134736501
3.542226865263501 25.0603194042095 1.1746805957905053
20.6767731347365 5.263226865263498 19.179226865263495
16.5987731347365 31.433865673682504 28.9773194042095
1.8132268652634949 16.674134326317514 13.6377731347365
8.192319404209503 21.8967731347365 17.3727731347365
5.460773134736501 9.5367731347365 30.9902268652635
17.3202268652635 27.3687731347365 2.8052268652634993
12.910319404209499 0.11068059579049816 19.788226865263503
0.11122686526349668 24.5927731347365 14.545226865263501
18.6417731347365 27.707680595790507 21.0877731347365
7.725680595790493 9.721680595790502 3.942680595790506
1.884680595790499 1.0156805957904993 12.7607731347365
22.747226865263507 29.6797731347365 12.272680595790504
27.7653194042095 25.521226865263493 8.870226865263497
6.433680595790506 12.779226865263503 5.367226865263497
26.1862268652635 5.0037731347365 4.471226865263496
24.2806805957905 26.4983194042095 11.672226865263504
0.7796805957904951 29.930773134736498 10.878680595790499
7.919680595790496 32.0462268652635 12.731319404209504
31.3593194042095 1.0416805957904955 24.413773134736502
11.734319404209504 8.275226865263498 29.5473194042095
17.8037731347365 15.9632268652635 14.4897731347365
10.6982268652635 20.532226865263503 19.9897731347365
20.9177731347365 9.8752268652635 5.930226865263499
11.502226865263502 0.5492268652634991 2.6802268652634993
10.686773134736502 11.6727731347365 0.5212268652635004
3.546773134736501 22.030226865263494 5.5027731347365005
17.096226865263496 17.8363194042095 14.759680595790499
9.321226865263505 20.0837731347365 18.5492268652635
31.8277731347365 7.462226865263496 10.157226865263503
8.617226865263497 8.233226865263497 0.1552268652635007
21.8853194042095 5.038226865263503 7.4422268652635
12.757226865263497 21.65468059579051 31.8177731347365
18.126226865263497 27.596226865263496 20.0857731347365
3.5792268652635 4.408773134736501 5.1897731347365
18.6136805957905 0.40213432631750834 0.9937731347365002
2.753680595790499 26.2833194042095 24.8867731347365
29.4803194042095 5.812773134736501 10.4117731347365
11.583226865263498 26.687773134736503 25.125226865263507
10.145773134736501 22.3196805957905 20.094865673682506
31.745773134736503 8.6597731347365 1.421226865263499
27.7987731347365 13.675226865263504 31.4937731347365
22.1517731347365 12.5827731347365 7.316226865263495
7.9387731347365005 23.3747731347365 11.534226865263498
0.34422686526350077 19.851226865263506 10.175226865263504
26.5413194042095 26.2837731347365 27.5663194042095
11.610226865263499 13.1492268652635 15.572680595790501
27.1417731347365 12.880226865263502 17.9177731347365
20.204680595790506 30.375319404209502 29.9302268652635
3.5417731347365002 7.595226865263498 2.2032268652634954
17.1427731347365 15.5517731347365 18.9817731347365
4.683226865263499 13.855226865263496 8.5186805957905
14.7532268652635 28.892226865263503 2.5116805957904944
4.406319404209501 20.2072268652635 4.6122268652635015
27.3277731347365 20.1777731347365 0.07977313473649872
15.035226865263503 3.6227731347364998 12.8307731347365
11.084226865263496 23.2783194042095 20.422226865263504
22.375773134736498 1.8686805957904937 19.7267731347365
9.3917731347365 12.8337731347365 31.7587731347365
26.321226865263505 6.293226865263499 25.876226865263497
3.4202268652635013 29.360226865263506 22.8697731347365
12.693226865263505 28.0917731347365 11.800226865263504
11.917226865263501 24.5517731347365 4.671680595790505
18.76468059579051 20.314773134736498 23.4037731347365
29.9733194042095 17.388226865263498 6.6247731347365
15.434773134736501 24.3207731347365 15.0156805957905
20.025680595790504 0.9083194042095037 31.137226865263493
19.892226865263503 22.4857731347365 28.233226865263497
3.908226865263501 19.7757731347365 25.893226865263493
9.0577731347365 5.4167731347365 7.269680595790504
6.9677731347365 7.7652268652635 7.093226865263496
11.234226865263501 24.8387731347365 19.5177731347365
21.4203194042095 1.2756805957905044 31.718680595790502
8.0237731347365 21.2313194042095 10.550226865263504
30.7023194042095 3.3887731347364998 15.7363194042095
30.411226865263494 17.2527731347365 30.0347731347365
21.2557731347365 18.694226865263495 10.537134326317513
17.1747731347365 9.851680595790498 4.613134326317507
18.1247731347365 27.684773134736503 7.5677731347365
24.7042268652635 26.6687731347365 21.2342268652635
21.860319404209502 15.4602268652635 21.7637731347365
10.933680595790506 10.9512268652635 12.5697731347365
29.522226865263498 13.3853194042095 12.855134326317511
21.2983194042095 12.954134326317515 29.483226865263497
2.6726805957904958 9.183680595790506 8.770226865263503
19.877226865263502 11.957319404209503 14.7537731347365
16.90768059579051 20.0747731347365 15.579680595790492
26.3337731347365 25.651226865263503 27.9113194042095
6.8992268652635005 12.0987731347365 6.1737731347365
27.7607731347365 17.3757731347365 26.4437731347365
15.6337731347365 17.1616805957905 28.4152268652635
0.1787731347365007 7.011773134736501 12.5747731347365
10.644226865263498 7.176680595790501 25.7782268652635
29.4153194042095 7.876773134736501 14.7622268652635
16.796319404209502 8.714680595790497 20.256226865263493
20.970226865263506 10.281226865263498 22.962319404209502
3.407226865263503 17.958226865263505 27.5157731347365
29.180773134736498 29.375773134736498 26.369773134736498
24.432226865263495 16.9182268652635 1.8402268652634959
6.203773134736501 29.3286805957905 19.0717731347365
26.8047731347365 0.6057731347365003 29.4632268652635
21.693226865263505 25.238226865263506 30.7807731347365
11.590226865263496 22.8622268652635 29.8803194042095
20.5097731347365 24.345226865263506 26.4827731347365
12.520319404209499 7.176226865263494 25.2053194042095
29.0573194042095 24.973226865263506 7.452680595790497
19.7347731347365 32.123773134736496 1.0316805957905046
4.1487731347365 0.11277313473649997 14.5882268652635
26.6943194042095 23.3123194042095 9.9662268652635
17.0066805957905 28.5043194042095 26.760226865263498
6.074226865263505 21.1723194042095 4.3262268652635
2.864226865263497 0.8937731347365006 8.247773134736502
6.968226865263496 12.830226865263505 18.548226865263494
18.983773134736502 32.098226865263506 27.309226865263504
29.230226865263496 18.8537731347365 8.8617731347365
31.175773134736502 3.016865673682503 15.6927731347365
15.099134326317511 27.401226865263503 25.3167731347365
20.3337731347365 12.981319404209504 18.307226865263495
11.979680595790498 13.8517731347365 26.0957731347365
9.8937731347365 4.957773134736501 21.13068059579051
9.0987731347365 16.3727731347365 28.9353194042095
8.7637731347365 20.711680595790497 0.12968059579050362
15.0377731347365 17.636226865263502 12.1497731347365
2.2652268652635 30.369773134736498 29.233226865263497
5.9657731347365 12.5327731347365 7.000680595790499
6.1957731347365 23.1587731347365 3.181865673682509
28.0167731347365 11.683773134736501 10.508226865263502
5.918226865263499 23.608226865263497 17.4257731347365
8.129226865263497 21.581226865263496 6.2697731347365
22.6037731347365 31.187865673682495 16.7842268652635
24.916773134736502 0.2532268652634997 18.4937731347365
13.1507731347365 15.8707731347365 7.974226865263496
18.7547731347365 5.155773134736501 6.4677731347365
3.7871343263175135 12.767773134736501 27.9092268652635
15.247680595790499 9.176319404209497 17.1083194042095
25.8247731347365 4.380226865263502 18.4917731347365
11.143319404209503 0.8522268652634963 12.491773134736501
2.9967731347365003 9.542319404209504 13.720226865263498
30.1367731347365 5.972773134736499 15.9637731347365
23.9127731347365 31.8227731347365 11.3153194042095
20.3247731347365 5.2377731347365 13.443680595790497
4.001773134736501 18.9467731347365 32.1323194042095
18.223226865263506 26.8202268652635 19.3292268652635
3.9536805957905017 24.869226865263506 13.916680595790496
26.845226865263506 26.3917731347365 9.578226865263495
30.736226865263497 18.3167731347365 22.5307731347365
25.794226865263504 24.4332268652635 11.337226865263496
18.128226865263507 9.892226865263503 3.1982268652635
24.4697731347365 30.2777731347365 23.328226865263495
7.360226865263499 23.120226865263497 25.6763194042095
8.7487731347365 21.150680595790504 0.9036805957905045
10.705680595790497 9.0707731347365 4.0342268652634985
2.5827731347365006 8.859319404209504 1.6692268652635036
11.6952268652635 13.114226865263497 26.596319404209503
0.10068059579049304 16.304226865263495 11.080226865263505
20.8823194042095 3.646134326317508 25.7386805957905
26.410773134736502 26.6772268652635 12.254226865263497
29.1153194042095 5.911319404209504 15.7137731347365
30.871865673682507 16.27068059579051 28.5157731347365
19.7727731347365 24.2423194042095 24.7267731347365
6.3156805957904965 27.3847731347365 19.836226865263505
14.7273194042095 11.3295880568445 11.1537731347365
5.109134326317516 11.937680595790496 17.8877731347365
30.8103194042095 17.1117731347365 12.0642268652635
16.7497731347365 12.338680595790493 17.8967731347365
16.084226865263496 12.258226865263502 17.327226865263505
30.0427731347365 13.356226865263501 2.8196805957905013
12.791680595790496 28.946226865263505 20.6857731347365
29.056226865263504 13.4817731347365 6.031226865263498
2.3296805957904922 20.7417731347365 16.631226865263493
24.3412268652635 26.7038656736825 21.580226865263505
28.2657731347365 2.877680595790494 29.8187731347365
19.0727731347365 31.181226865263504 30.604226865263506
21.236226865263497 21.132226865263497 8.813226865263495
22.6767731347365 18.5456805957905 23.9512268652635
21.3547731347365 17.1532268652635 10.706773134736501
18.7437731347365 24.749226865263502 0.9352268652634947
17.041226865263503 1.1937731347364995 17.0797731347365
23.1017731347365 15.4407731347365 20.7587731347365
12.430680595790506 17.5217731347365 9.5457731347365
21.1706805957905 24.3547731347365 0.7762268652635029
4.4206805957905 25.4422268652635 14.6937731347365
6.524773134736501 21.3867731347365 18.358680595790503
32.1623194042095 26.431226865263504 25.062773134736503
18.1737731347365 3.5116805957904944 0.2832268652635008
17.4537731347365 25.433773134736498 2.6937731347364995
13.110319404209502 0.18713432631750493 1.0872268652634958
16.260226865263498 12.0246805957905 25.9447731347365
22.041773134736502 20.368680595790508 24.750226865263507
16.5287731347365 9.485226865263499 3.0966805957905024
23.2867731347365 18.0283194042095 16.0267731347365
15.5077731347365 24.541773134736502 23.8703194042095
30.122773134736498 12.024773134736499 8.0522268652635
8.9517731347365 19.1307731347365 3.624226865263502
15.696226865263505 2.4947731347364996 12.564680595790506
9.5007731347365 25.1703194042095 3.9392268652634996
0.4132268652635034 3.6892268652634996 15.668680595790505
5.767773134736501 0.46177313473650017 12.891226865263498
22.1877731347365 20.7797731347365 9.355226865263496
8.9847731347365 30.142226865263503 2.9146805957905
11.1772268652635 29.1723194042095 21.894226865263498
25.805773134736498 27.444226865263495 29.863773134736498
12.6257731347365 0.18077313473649959 20.262226865263493
28.2677731347365 28.9873194042095 16.192773134736502
5.175773134736501 17.2282268652635 19.681226865263504
17.2463194042095 19.4032268652635 20.245865673682502
25.4482268652635 24.2357731347365 7.4422268652635
14.4052268652635 5.747680595790499 13.003319404209503
29.9817731347365 1.3626805957904935 7.145773134736499
26.113226865263506 4.583680595790497 18.9723194042095
15.7072268652635 10.6802268652635 1.1452268652635027
1.0182268652635003 11.9107731347365 21.0057731347365
20.1537731347365 11.0667731347365 13.571226865263505
23.428226865263504 18.064319404209503 27.4527731347365
18.0377731347365 2.4327731347365003 6.675680595790496
12.0977731347365 19.151319404209502 9.4417731347365
23.1627731347365 10.7412268652635 17.283226865263494
11.1827731347365 4.409773134736501 7.226773134736501
1.2997731347365011 23.298226865263494 10.3777731347365
17.8667731347365 27.8063194042095 1.1112268652634967
16.000226865263507 1.6907731347365011 26.921319404209502
0.0132268652634977 29.296319404209502 20.4437731347365
20.2967731347365 6.8537731347365 13.1907731347365
22.4182268652635 17.299319404209502 19.1677731347365
0.16822686526349884 22.8653194042095 9.147226865263498
12.6557731347365 22.4572268652635 15.548226865263501
25.887226865263493 16.0377731347365 30.4353194042095
17.7827731347365 30.780226865263494 7.532226865263503
31.7372268652635 25.9152268652635 30.976226865263506
13.5057731347365 21.5306805957905 11.7697731347365
26.2997731347365 22.684226865263504 13.720226865263498
11.700226865263495 11.2987731347365 13.5117731347365
7.714680595790497 15.969773134736501 6.790680595790505
28.7523194042095 28.190773134736503 26.3747731347365
16.3592268652635 31.113319404209502 7.590319404209499
10.830680595790497 21.041226865263503 11.5477731347365
28.5097731347365 21.398226865263503 20.6093194042095
18.580226865263505 21.157319404209503 15.1162268652635
29.2053194042095 12.171773134736501 24.936773134736498
10.4392268652635 21.286226865263494 21.986226865263497
4.8077731347365 22.803226865263504 3.9422268652634997
30.253773134736498 6.2687731347365006 5.964680595790497
5.4227731347365005 0.33422686526349565 25.2287731347365
2.242680595790503 2.783773134736501 28.9327731347365
15.249226865263502 15.326680595790492 23.755226865263502
23.8707731347365 17.077865673682496 14.328773134736501
30.4632268652635 13.8227731347365 8.7717731347365
29.062773134736503 14.280773134736501 17.795226865263494
31.899226865263493 2.884680595790499 24.074680595790497
28.4387731347365 5.6113194042095 27.030226865263494
14.3842268652635 20.927319404209502 15.825226865263495
27.541773134736502 10.4223194042095 21.015226865263493
31.3447731347365 27.5127731347365 11.845226865263498
29.6033194042095 14.636226865263502 2.8017731347365
21.840226865263496 10.110773134736501 6.784773134736501
21.0317731347365 11.9722268652635 18.7827731347365
