21.878226865263507 28.8913194042095 31.9886805957905
13.434226865263504 29.3487731347365 9.305773134736501
27.2547731347365 8.378680595790499 6.815773134736501
1.5476805957904958 27.297773134736502 27.2147731347365
21.524226865263493 27.7787731347365 1.0122268652635
2.7912268652635035 26.913773134736502 30.753773134736498
1.4316805957904961 31.658226865263494 6.4147731347365
8.273773134736501 17.196680595790497 17.4812268652635
18.310226865263495 11.376226865263497 0.2696805957905042
12.3913194042095 15.589226865263498 12.072226865263495
30.018226865263493 26.648319404209502 29.990680595790508
18.1652268652635 29.9877731347365 5.725226865263501
28.0377731347365 15.6787731347365 20.2342268652635
22.6916805957905 31.613773134736498 25.578319404209502
15.826680595790506 31.936773134736498 25.796319404209502
1.9267731347365 30.4817731347365 10.791134326317504
21.044226865263504 0.2692268652634979 13.4637731347365
3.299226865263499 25.489773134736502 28.8477731347365
26.592680595790497 25.4827731347365 10.561773134736502
5.3277731347365 17.312680595790496 21.489773134736502
10.958226865263498 24.554226865263495 3.1307731347365007
31.053773134736502 27.4422268652635 2.213773134736501
6.025226865263498 31.578226865263495 4.5792268652635
29.8382268652635 23.934226865263504 28.307226865263495
13.397226865263498 31.3167731347365 0.333226865263498
3.9607731347365007 5.4237731347365 9.793319404209502
11.224226865263496 27.483773134736502 17.1707731347365
15.898226865263503 16.0317731347365 23.7237731347365
2.1962268652635046 28.1023194042095 1.9732268652634986
4.712680595790502 2.763680595790504 22.8967731347365
21.4182268652635 4.557226865263495 19.7837731347365
4.212319404209499 2.636773134736501 26.4283194042095
20.7627731347365 10.9357731347365 29.8627731347365
14.839680595790497 24.9217731347365 11.636680595790494
11.468226865263496 17.3442268652635 9.862226865263501
7.294226865263504 12.6157731347365 27.246226865263502
26.1887731347365 15.716773134736501 18.952226865263505
30.334226865263496 22.5503194042095 22.522226865263498
9.9392268652635 2.5647731347365 31.801226865263494
5.386680595790494 29.5453194042095 11.517680595790495
11.0937731347365 18.0867731347365 10.933680595790506
3.2403194042094974 19.5773194042095 22.0517731347365
9.928226865263504 25.623226865263497 2.3677731347365008
2.944226865263495 21.550226865263504 3.0682268652635045
3.427226865263499 8.368226865263502 26.5307731347365
2.3342268652634957 4.152226865263501 16.301226865263494
3.9096805957905048 27.4872268652635 5.100680595790493
20.0007731347365 7.878680595790499 5.9162268652635035
13.1147731347365 10.1287731347365 0.8466805957905024
14.707865673682505 19.096680595790502 25.0703194042095
30.8317731347365 20.9007731347365 9.306680595790496
23.190226865263504 7.325680595790502 15.858226865263497
4.3937731347365006 29.607319404209502 30.3887731347365
8.5957731347365 0.7296805957904979 14.661226865263501
0.3532268652635011 23.1707731347365 13.6887731347365
17.8757731347365 14.730226865263496 0.8587731347365004
29.706319404209502 30.5107731347365 4.822773134736501
29.285773134736502 31.361773134736502 29.919226865263504
18.410773134736502 22.3127731347365 6.2592268652635
3.3892268652635025 19.678226865263504 19.635226865263498
20.660134326317504 28.056773134736503 3.8356805957904925
12.3557731347365 6.037226865263499 19.9617731347365
17.780226865263494 23.936319404209502 20.0777731347365
15.2287731347365 14.867226865263497 8.8842268652635
26.742865673682502 18.193865673682495 12.252319404209498
1.1762268652634944 27.625319404209502 25.5907731347365
8.270226865263503 21.051226865263494 23.7987731347365
19.470680595790498 28.610319404209502 13.8082268652635
31.370773134736503 14.2017731347365 8.046680595790505
31.623226865263497 12.735773134736501 11.086226865263498
1.7957731347364998 6.058226865263499 1.0132268652634977
9.761226865263502 26.187773134736503 20.8843194042095
26.349773134736502 15.1132268652635 3.442680595790506
6.0682268652635045 15.336319404209501 12.907226865263503
9.551226865263494 26.119319404209502 1.5422268652635012
11.3112268652635 15.200319404209498 3.9512268652635
15.609226865263501 15.1807731347365 26.9413194042095
21.2867731347365 17.020319404209502 20.6137731347365
2.6432268652635003 7.577680595790497 1.7272268652634963
4.277226865263501 0.6947731347365007 19.3057731347365
28.5633194042095 10.035226865263503 29.8747731347365
11.029319404209499 5.782226865263503 10.1917731347365
2.9437731347364995 28.750773134736498 19.982226865263506
0.9757731347364995 8.591319404209504 26.1183194042095
27.199865673682496 7.828680595790502 14.1837731347365
5.374680595790494 28.878773134736498 4.8722268652634995
20.4917731347365 27.2997731347365 13.3872268652635
19.0177731347365 11.540226865263499 1.1547731347364998
12.236226865263497 6.023680595790495 30.4182268652635
29.4047731347365 22.9687731347365 17.4572268652635
28.9937731347365 13.5336805957905 18.108773134736502
26.7173194042095 13.8457731347365 23.7192268652635
9.6467731347365 5.703226865263495 12.0062268652635
13.9237731347365 27.5433194042095 20.0057731347365
7.883226865263502 18.1017731347365 0.9587731347365
3.978226865263501 20.6377731347365 8.7617731347365
22.776226865263503 17.152226865263493 20.644226865263498
22.2487731347365 24.810226865263495 25.3543194042095
12.2926805957905 31.039226865263494 9.5117731347365
21.7317731347365 8.245226865263497 27.411226865263494
2.7402268652635016 30.241226865263506 3.4357731347365004
24.808773134736498 13.476226865263499 25.2573194042095
8.5657731347365 10.933773134736501 26.1067731347365
29.808773134736498 22.791773134736502 23.619226865263506
17.078226865263495 31.6097731347365 20.486773134736502
19.1772268652635 8.8722268652635 21.6537731347365
7.6927731347365 13.075226865263495 28.973226865263506
32.0583194042095 19.094680595790507 5.899773134736501
30.4633194042095 5.2817731347365005 27.427319404209502
19.019226865263498 18.4247731347365 7.138226865263498
16.294226865263504 14.722319404209504 2.4146805957905
20.982319404209502 26.055319404209502 20.247226865263507
10.955680595790497 28.6813194042095 8.929226865263495
19.9613194042095 15.717134326317506 25.569226865263495
0.8952268652635027 26.9353194042095 19.3106805957905
22.7677731347365 0.5902268652634959 31.930319404209502
1.6186805957904937 1.9082268652635008 22.3927731347365
16.0762268652635 7.101680595790498 5.276680595790495
21.1887731347365 28.5727731347365 4.800773134736501
11.1607731347365 24.321226865263505 3.4432268652635045
21.785226865263503 27.5147731347365 5.028226865263498
8.126680595790504 17.018226865263493 25.233773134736502
18.3237731347365 4.4367731347365 2.171680595790505
3.248773134736501 21.798226865263494 2.9627731347364996
29.491226865263506 23.422773134736502 23.5597731347365
8.078226865263495 13.057226865263495 7.421773134736501
22.13068059579051 23.2437731347365 14.4257731347365
21.8227731347365 19.3757731347365 7.2047731347365005
17.7777731347365 27.0987731347365 21.340680595790502
18.4572268652635 12.670226865263501 9.821680595790497
14.124226865263502 11.6357731347365 13.681680595790496
31.3673194042095 8.289226865263501 26.152226865263493
5.726773134736501 0.881680595790499 5.218226865263496
2.4736805957904977 30.250865673682497 10.2652268652635
20.108226865263497 8.760680595790504 19.1053194042095
20.6783194042095 16.259319404209503 8.3262268652635
13.976226865263499 19.1127731347365 5.5367731347364995
20.4587731347365 31.666773134736502 19.7937731347365
17.5667731347365 11.6402268652635 20.8297731347365
3.8232268652635 30.0792268652635 1.8726805957904986
14.816226865263495 12.979226865263499 17.1712268652635
22.7312268652635 30.834226865263496 21.096226865263496
9.893319404209503 5.5822268652635 26.3168656736825
6.7642268652635025 17.3567731347365 22.0887731347365
12.3917731347365 12.909226865263498 25.3413194042095
22.4632268652635 28.6487731347365 20.2637731347365
16.9227731347365 9.6192268652635 30.0437731347365
30.6703194042095 7.401226865263503 0.6837731347364997
21.9087731347365 14.963319404209503 18.9752268652635
10.612319404209504 29.242773134736503 24.6067731347365
1.9542268652635002 0.5233194042094986 4.867680595790503
29.2073194042095 5.391226865263498 19.494226865263506
9.729226865263499 9.9357731347365 12.8887731347365
0.18768059579049634 22.8687731347365 23.7203194042095
11.248226865263497 1.0852268652635004 21.508226865263502
17.255226865263502 24.8857731347365 14.828773134736501
16.9463194042095 23.297226865263504 31.649226865263493
5.0032268652635 31.5093194042095 6.719680595790493
25.4427731347365 14.8077731347365 18.4337731347365
0.9527731347364998 7.6937731347364995 25.3817731347365
9.5397731347365 8.8497731347365 13.9077731347365
16.1017731347365 26.1952268652635 23.589226865263505
22.1827731347365 3.502226865263502 20.0027731347365
30.3233194042095 22.8837731347365 30.059773134736503
1.9602268652635004 27.9477731347365 18.3387731347365
5.540226865263499 2.0242268652635005 25.2907731347365
3.1197731347364996 6.843680595790502 1.0256805957905044
16.8637731347365 30.6327731347365 21.5097731347365
0.8516805957904978 29.292226865263494 10.857680595790498
14.2227731347365 23.3857731347365 27.602226865263496
12.214680595790497 12.946134326317505 24.7753194042095
30.4247731347365 29.895226865263503 30.555773134736498
8.9327731347365 11.194226865263495 4.642773134736501
14.0396805957905 20.861226865263497 16.331319404209502
4.529226865263503 28.9233194042095 4.0412268652635035
2.380226865263502 21.8837731347365 17.246226865263502
18.4347731347365 30.5103194042095 28.1343194042095
4.968226865263496 30.247226865263507 11.998226865263497
8.7652268652635 11.5317731347365 25.669226865263504
32.0757731347365 12.9923194042095 6.194773134736501
20.7657731347365 27.580226865263505 27.773865673682508
29.808773134736498 1.5622268652635043 8.705226865263505
6.1737731347365 10.3687731347365 27.065773134736503
29.3917731347365 29.791773134736502 28.3747731347365
22.061680595790506 0.35331940420950403 0.8676805957905032
4.5822268652635 30.6347731347365 14.517773134736501
13.7562268652635 5.1707731347365 18.571226865263505
0.12977313473649943 0.06868059579049657 22.8562268652635
19.3202268652635 9.819226865263495 20.053226865263504
1.076134326317515 17.4873194042095 20.669773134736502
16.106319404209504 16.173226865263494 31.4437731347365
6.417226865263501 13.565226865263504 0.8197731347365007
11.7562268652635 7.200680595790502 3.3757731347365
22.4392268652635 20.155226865263494 24.0637731347365
27.985319404209502 9.4587731347365 19.4567731347365
11.8662268652635 11.725680595790493 15.2527731347365
12.874319404209498 7.066226865263495 23.514226865263502
29.3453194042095 3.2742268652635005 26.4667731347365
17.939319404209503 14.2917731347365 1.2746805957904996
18.9512268652635 23.230773134736502 6.577226865263505
19.209226865263496 0.7202268652634984 13.151226865263503
28.2257731347365 2.5472268652635037 25.2962268652635
29.506226865263493 7.261226865263502 23.6917731347365
25.5282268652635 18.610226865263506 22.2957731347365
14.920226865263501 29.126773134736503 9.377680595790494
19.6937731347365 25.631226865263493 25.7167731347365
32.0827731347365 1.9227731347365005 8.4547731347365
20.6503194042095 20.6107731347365 32.0037731347365
16.6077731347365 28.1862268652635 0.1427731347365011
28.1347731347365 4.091773134736501 8.115226865263502
23.3737731347365 24.3987731347365 11.6607731347365
2.5272268652635006 15.288226865263503 24.183773134736498
0.5962268652634961 10.482226865263499 13.178680595790496
19.623680595790503 20.063226865263495 18.385226865263498
8.8076805957905 21.430680595790506 12.6157731347365
21.951680595790506 7.043226865263499 17.9163194042095
12.950226865263495 9.0797731347365 9.794226865263504
17.932226865263495 3.1007731347364995 13.1627731347365
13.317319404209503 4.2132268652635005 4.005773134736501
10.572226865263495 13.8647731347365 28.7627731347365
3.7206805957904976 28.607319404209502 18.8877731347365
12.976226865263499 15.306226865263504 26.6597731347365
2.820680595790506 28.3367731347365 9.435226865263495
15.2237731347365 2.566226865263495 2.549226865263499
22.3682268652635 7.924226865263499 17.2807731347365
28.476226865263506 3.841773134736501 19.3477731347365
28.592226865263505 20.4307731347365 17.330226865263505
31.944226865263495 26.581226865263496 1.1352268652634976
19.317773134736502 7.7757731347365 19.6827731347365
24.8447731347365 31.3817731347365 20.0073194042095
12.333226865263498 16.9337731347365 28.313226865263495
17.2957731347365 28.1143194042095 16.1367731347365
28.181773134736503 22.6802268652635 2.6997731347364997
4.287680595790505 4.4092268652634985 12.2317731347365
16.4927731347365 14.176226865263494 3.192680595790506
3.5447731347365004 18.8607731347365 29.128319404209503
11.1432268652635 13.6222268652635 29.3073194042095
1.6317731347365 31.0147731347365 3.0286805957905045
14.746226865263502 2.2232268652634986 15.7907731347365
27.050226865263504 13.8077731347365 7.235773134736501
31.635865673682503 18.503319404209503 14.871680595790494
2.3396805957904974 29.500773134736498 30.7293194042095
15.3387731347365 19.0057731347365 8.328773134736501
20.6182268652635 24.248773134736503 29.882226865263497
9.065226865263504 15.985226865263506 0.5486805957905005
9.997773134736502 23.0057731347365 26.4737731347365
16.1337731347365 20.5443194042095 16.6747731347365
17.9797731347365 10.0837731347365 20.1107731347365
31.471319404209503 28.3487731347365 25.837226865263496
26.2023194042095 15.208226865263498 28.9717731347365
15.3397731347365 20.0547731347365 12.610226865263499
13.6377731347365 11.3527731347365 1.0992268652634962
28.5047731347365 14.4517731347365 7.973680595790498
30.8607731347365 30.0343194042095 22.8657731347365
28.2923194042095 26.276319404209502 24.5937731347365
26.9967731347365 27.5777731347365 17.4087731347365
13.029226865263503 24.470226865263506 5.312226865263504
5.5847731347364995 23.5027731347365 7.877226865263502
9.827226865263505 29.7403194042095 25.6323194042095
6.143680595790499 15.0667731347365 18.4337731347365
32.095319404209505 1.3992268652635005 11.020680595790495
2.505680595790494 4.956680595790502 32.1737731347365
21.5827731347365 7.450773134736501 28.4607731347365
25.248680595790503 15.955226865263505 0.9947731347364996
17.1406805957905 2.2557731347365007 30.211226865263505
22.151226865263503 4.645226865263503 19.182226865263495
3.6317731347365 15.251773134736501 21.532319404209503
1.7802268652635007 17.4463194042095 22.517226865263503
4.6143194042095 23.4977731347365 5.852226865263496
28.5462268652635 31.2197731347365 20.1083194042095
21.4302268652635 10.392226865263503 18.8977731347365
15.661226865263501 15.648226865263503 3.5282268652634983
30.093319404209502 25.786226865263494 28.872319404209502
2.019226865263498 30.2282268652635 31.0672268652635
1.139773134736501 7.4877731347365 11.483226865263497
17.116319404209502 19.945680595790506 0.3927731347365011
14.0737731347365 29.552319404209502 0.021226865263500372
15.2567731347365 15.855134326317511 23.414226865263494
1.9602268652635004 30.785773134736502 16.318680595790497
10.997773134736502 23.6097731347365 1.1587731347365011
21.203319404209502 13.174680595790505 14.134680595790499
7.205680595790497 14.312773134736501 12.912680595790505
17.7282268652635 25.5297731347365 26.3797731347365
0.26577313473650044 27.183773134736498 31.7253194042095
17.3687731347365 29.930773134736498 14.547226865263504
2.314680595790506 9.047226865263504 24.833226865263505
5.726680595790498 6.675226865263504 7.559773134736501
11.874226865263502 26.1127731347365 4.975680595790493
31.6083194042095 19.8382268652635 2.1837731347364997
26.8622268652635 13.543773134736501 19.9717731347365
23.937226865263504 4.157680595790495 14.5217731347365
21.6017731347365 29.145226865263503 20.4987731347365
2.961226865263498 27.6657731347365 18.0537731347365
16.820773134736502 1.3807731347365007 28.8382268652635
20.5663194042095 29.897865673682503 28.309226865263504
2.091773134736501 8.7687731347365 8.272226865263498
15.166226865263503 0.7072268652635003 23.0887731347365
19.4017731347365 18.973226865263506 19.568680595790497
6.3962268652635 12.0486805957905 28.9087731347365
1.7266805957904978 18.4086805957905 9.729319404209502
20.0013194042095 30.1687731347365 27.3837731347365
29.8223194042095 31.172773134736502 4.1157731347365
19.673226865263494 13.4767731347365 3.3656805957904936
8.802680595790505 28.571226865263505 20.0353194042095
19.440226865263504 0.3542268652634988 14.2607731347365
12.7837731347365 30.2957731347365 9.8022268652635
30.0677731347365 1.3472268652635009 29.1032268652635
15.042226865263501 2.7896805957905 14.7547731347365
6.241226865263499 6.969226865263501 17.1997731347365
1.9812268652635012 20.863226865263506 6.790226865263499
11.674773134736501 16.530226865263494 10.031226865263498
8.287226865263499 24.748773134736503 30.0927731347365
14.0297731347365 19.644226865263498 18.246865673682507
12.855680595790503 17.3787731347365 6.0812268652634955
11.4457731347365 31.3347731347365 30.7767731347365
4.613319404209502 6.5127731347365 16.9212268652635
10.732319404209502 17.496226865263502 9.179226865263495
0.30322686526350395 24.821680595790497 11.9377731347365
23.138226865263498 1.3316805957905018 6.168226865263499
30.1517731347365 4.703588056844495 26.7897731347365
24.1587731347365 26.5487731347365 26.4063194042095
22.036226865263494 6.1617731347364995 28.6657731347365
30.1017731347365 8.549226865263499 27.311773134736498
27.2607731347365 12.3352268652635 23.7523194042095
12.501226865263497 8.426226865263494 1.4276805957905054
8.0327731347365 17.2457731347365 20.762226865263493
13.044226865263504 1.578773134736501 12.0306805957905
27.2827731347365 16.0503194042095 0.09122686526350066
11.8127731347365 11.3617731347365 25.931226865263504
2.340226865263496 5.923226865263501 30.9182268652635
11.7077731347365 29.736773134736502 27.3187731347365
19.75568059579051 19.2657731347365 19.258226865263502
14.101226865263499 8.839319404209501 11.664226865263501
9.511134326317503 19.420226865263494 20.747226865263507
6.494226865263499 16.2807731347365 22.3837731347365
4.361226865263497 6.777773134736501 30.730680595790503
16.9033194042095 11.058680595790506 31.116226865263506
16.272680595790504 22.078226865263495 28.6987731347365
4.540680595790505 17.9867731347365 21.4077731347365
9.606226865263501 9.865226865263502 26.0297731347365
8.221680595790502 14.8177731347365 13.8782268652635
0.12722686526350202 18.1267731347365 14.240226865263502
21.4632268652635 18.605773134736502 18.4957731347365
6.9977731347365 13.5357731347365 19.7867731347365
28.303226865263504 23.0763194042095 17.7433194042095
29.4463194042095 8.325773134736501 25.6347731347365
28.224773134736502 17.492226865263497 29.2867731347365
7.385226865263498 21.9407731347365 27.3187731347365
7.0486805957905005 21.3547731347365 20.6497731347365
23.8207731347365 21.8172268652635 10.693226865263505
1.6037731347364996 16.5637731347365 2.0512268652634944
20.7903194042095 16.6517731347365 19.3017731347365
11.712319404209499 26.4487731347365 21.4123194042095
30.8106805957905 1.3091343263175048 28.128773134736498
31.5307731347365 11.3382268652635 12.1787731347365
1.5632268652634949 30.500226865263507 16.14568059579051
21.949226865263505 0.7372268652635015 19.3442268652635
25.1647731347365 12.7567731347365 23.4272268652635
4.266226865263498 17.0027731347365 14.1222268652635
27.628226865263507 14.5907731347365 20.087226865263496
2.7006805957905016 31.176226865263494 11.8262268652635
1.0992268652634962 30.176226865263494 0.11122686526349668
17.8477731347365 14.610773134736501 23.5487731347365
31.3613194042095 30.0917731347365 27.9657731347365
15.904226865263503 10.940226865263504 30.003226865263507
1.6147731347365006 18.063226865263495 0.4862268652634967
3.6632268652635034 26.794226865263504 3.136773134736501
21.4317731347365 20.4267731347365 22.4782268652635
16.378865673682512 11.1047731347365 22.6517731347365
17.700226865263495 12.4357731347365 20.693226865263505
14.6372268652635 15.3782268652635 24.101226865263506
4.414226865263501 13.550680595790496 21.230773134736502
11.932226865263495 18.7937731347365 8.014680595790495
20.0727731347365 8.654226865263503 15.735319404209502
31.5887731347365 13.246226865263502 31.8653194042095
29.8047731347365 1.333226865263498 28.410773134736502
8.867680595790503 19.327226865263505 21.0413194042095
27.989773134736502 20.247226865263507 8.514226865263502
5.8277731347365 16.5047731347365 25.7252268652635
13.109319404209504 15.6537731347365 3.2217731347365
32.0787731347365 29.9723194042095 8.923226865263501
13.080226865263505 27.588680595790507 6.498773134736501
14.234226865263501 3.2242268652634962 3.982680595790498
15.0457731347365 13.617226865263497 6.255680595790494
31.4033194042095 13.4377731347365 6.919680595790496
10.9197731347365 17.324226865263505 18.0347731347365
7.2207731347365005 14.6197731347365 20.6127731347365
9.346680595790502 14.3597731347365 6.424680595790505
7.9147731347365 16.231680595790507 14.809773134736501
9.842226865263498 1.877226865263502 0.5852268652635004
0.8006805957904959 31.9667731347365 4.5926805957904975
13.706319404209498 24.592226865263505 18.9813194042095
2.5852268652635004 25.7037731347365 28.6946805957905
5.468319404209499 13.311319404209502 31.540680595790505
18.3117731347365 10.856319404209504 23.045226865263494
13.261226865263502 30.1853194042095 24.9717731347365
18.8017731347365 9.187226865263504 5.263226865263498
21.1847731347365 10.6657731347365 29.161226865263494
5.433226865263499 16.036226865263494 26.2297731347365
16.339680595790497 12.227226865263496 14.880226865263502
11.3523194042095 3.799226865263499 12.058773134736501
19.25868059579051 25.827865673682496 14.987226865263501
17.0973194042095 9.5077731347365 21.7137731347365
18.4827731347365 21.759226865263493 0.5992268652634962
16.190226865263504 12.589680595790497 18.7427731347365
17.761226865263502 15.478680595790493 23.8107731347365
24.9237731347365 9.9452268652635 30.677319404209502
7.086226865263498 16.6387731347365 17.2333194042095
4.097773134736499 14.776680595790495 14.357319404209502
1.8637731347364994 5.7687731347365006 11.9422268652635
8.075226865263495 12.516226865263498 19.720134326317506
23.6177731347365 9.051226865263494 28.194226865263495
32.1427731347365 7.6342268652635 9.031226865263498
6.8427731347365 22.8367731347365 18.797226865263504
11.194226865263495 31.9247731347365 28.462319404209502
21.696226865263505 4.725680595790493 15.876773134736501
18.294773134736502 15.8137731347365 0.20622686526349554
27.352773134736502 2.5206805957904947 25.5763194042095
8.798226865263501 28.6357731347365 19.2067731347365
4.673226865263501 11.7682268652635 26.3207731347365
2.4366805957905058 17.8927731347365 2.3197731347365007
8.206226865263496 12.0182268652635 5.608226865263497
30.5403194042095 17.7287731347365 2.0207731347364994
6.543773134736501 21.774226865263493 3.975680595790493
29.5747731347365 16.391680595790504 26.361226865263497
8.528680595790505 12.947319404209498 17.9997731347365
3.6927731347365 20.8887731347365 2.5176805957904946
20.770226865263503 26.291226865263503 19.4872268652635
7.348773134736501 17.9332268652635 19.4457731347365
14.0357731347365 3.8677731347365008 3.0956805957904976
13.6957731347365 7.3557731347365 9.164226865263501
12.7257731347365 21.885226865263498 17.0912268652635
15.1247731347365 18.3577731347365 22.5907731347365
0.07377313473650204 30.1737731347365 7.495773134736501
4.8567731347365 6.5267731347365 2.719680595790493
8.9327731347365 20.4842268652635 27.352226865263496
21.0247731347365 9.1897731347365 32.0813194042095
25.3257731347365 9.453226865263495 30.0473194042095
27.906865673682503 9.121680595790494 25.119226865263506
13.657680595790495 24.0197731347365 18.7647731347365
5.9017731347365 1.1582268652635008 22.2163194042095
20.2097731347365 11.2513194042095 10.8427731347365
1.7706805957904947 8.0397731347365 11.127226865263502
12.121226865263502 0.062226865263504294 30.811773134736498
5.690226865263504 4.233680595790503 30.558773134736498
29.119226865263506 14.920226865263501 25.238226865263506
8.7367731347365 7.553773134736501 22.580226865263505
10.208680595790497 7.8267731347365 26.928773134736502
22.860226865263506 18.1467731347365 22.4827731347365
10.0707731347365 31.8823194042095 0.2936805957905051
20.5757731347365 5.947773134736501 25.622226865263507
3.3137731347365005 17.504226865263497 28.4677731347365
6.4867731347365005 22.893226865263493 18.624680595790508
13.023680595790495 21.9233194042095 28.340319404209502
22.5207731347365 6.5007731347365 19.7477731347365
0.2662268652634978 5.606226865263501 0.1692268652635036
19.3087731347365 32.0083194042095 6.437226865263504
5.049773134736501 20.113319404209502 25.6367731347365
11.7776805957905 29.1517731347365 28.280226865263494
13.141680595790504 7.861226865263497 0.18777313473650104
12.493226865263502 15.031680595790505 27.2167731347365
26.9868656736825 29.9617731347365 4.0856805957904925
28.058411943155505 1.4522268652635049 21.4727731347365
23.8097731347365 0.32668059579049213 24.4767731347365
29.0957731347365 27.7997731347365 1.1917731347365006
15.450226865263495 18.334226865263496 4.633680595790494
1.4056805957904999 30.0773194042095 5.004773134736499
10.348226865263499 8.111226865263497 15.248773134736501
17.8327731347365 2.2163194042095036 14.1462268652635
14.596680595790502 4.799226865263499 20.274226865263493
29.1622268652635 19.542226865263494 8.027773134736501
26.9787731347365 19.750226865263507 30.0893194042095
4.7667731347365 31.0097731347365 11.139226865263502
19.154226865263503 0.3936805957904994 11.5407731347365
30.349773134736502 21.489226865263497 24.747773134736498
31.598865673682496 19.6152268652635 8.316226865263495
19.6017731347365 9.175680595790496 6.547226865263504
7.662680595790505 11.5637731347365 29.863773134736498
8.901680595790495 15.8347731347365 15.8677731347365
9.996680595790494 3.200773134736501 5.858680595790503
19.8517731347365 27.2287731347365 1.3326805957904924
31.027226865263493 27.3763194042095 24.744226865263506
7.238773134736499 16.074226865263505 19.8937731347365
21.723865673682496 3.8202268652635 26.933865673682504
27.361226865263497 23.6177731347365 24.364226865263497
10.5967731347365 6.758680595790494 27.065773134736503
15.0272268652635 19.6873194042095 9.2877731347365
19.0483194042095 19.3817731347365 18.5197731347365
5.0027731347365005 20.780226865263494 20.3087731347365
3.032680595790495 31.785226865263503 15.578226865263495
15.101680595790498 29.0402268652635 22.3167731347365
27.818226865263505 24.1457731347365 5.928773134736501
28.884226865263493 4.3153194042095 26.5483194042095
12.463680595790493 25.1587731347365 21.0047731347365
10.331226865263496 13.5517731347365 27.941226865263495
16.086226865263505 6.271773134736501 26.2807731347365
17.2163194042095 23.5257731347365 27.0377731347365
11.578226865263495 20.045226865263494 17.9247731347365
13.5937731347365 3.157680595790495 4.9977731347365
5.784773134736501 18.3927731347365 23.983773134736502
5.0557731347365 1.3676805957905032 22.000226865263507
7.104226865263499 13.8183194042095 9.333226865263498
4.6466805957904995 7.653226865263498 32.1302268652635
13.766226865263498 12.340226865263496 1.5732268652635
6.904226865263503 18.8112268652635 17.2217731347365
12.788226865263503 1.9502268652634953 19.9697731347365
3.4742268652634962 17.4897731347365 15.1933194042095
5.1392268652635025 17.4647731347365 15.554226865263495
11.5867731347365 23.6617731347365 2.6727731347365005
9.522226865263498 25.6053194042095 12.891226865263498
23.2047731347365 17.5187731347365 17.693226865263505
29.611773134736502 21.642226865263503 27.1173194042095
28.3913194042095 12.7472268652635 3.0552268652634993
21.311319404209502 18.1983194042095 8.501680595790504
27.927773134736498 28.894226865263498 5.856226865263501
12.784226865263498 29.9812268652635 30.6107731347365
25.4907731347365 16.64868059579051 2.0557731347364996
24.1887731347365 28.098226865263506 29.4253194042095
26.5437731347365 13.9942268652635 26.511226865263502
31.584226865263496 12.5307731347365 1.168773134736501
31.5867731347365 4.597680595790493 25.937773134736503
28.5147731347365 1.3237731347365003 27.7687731347365
3.1296805957905036 29.488773134736498 10.6862268652635
29.2167731347365 16.1017731347365 29.355226865263496
30.8503194042095 23.843319404209502 23.372226865263507
23.527226865263493 7.157226865263503 16.807226865263495
19.0827731347365 20.413773134736502 19.035226865263503
3.6217731347365003 29.0867731347365 9.285680595790495
29.9517731347365 0.5736805957905062 30.7327731347365
22.399226865263493 5.944680595790501 25.4267731347365
1.249680595790494 18.864226865263497 23.3357731347365
0.7332268652634966 5.384680595790499 31.9487731347365
11.9362268652635 29.794773134736502 23.6937731347365
5.802226865263499 30.5593194042095 5.7577731347364995
13.1497731347365 15.9163194042095 2.5317731347365005
21.725680595790507 2.8557731347365003 20.553226865263504
22.1627731347365 8.4987731347365 17.4557731347365
16.677319404209502 31.490865673682507 21.2147731347365
14.6887731347365 0.6652268652634987 11.108226865263497
26.425226865263504 24.2297731347365 12.148680595790495
16.536226865263494 4.9177731347365 25.878319404209503
0.0032268652634996897 21.7987731347365 3.2006805957905016
30.8167731347365 2.2622268652635 22.6273194042095
18.5467731347365 29.799865673682504 5.464226865263498
21.538226865263503 24.9422268652635 26.0097731347365
25.6747731347365 16.9667731347365 28.357226865263506
22.4133194042095 22.3777731347365 14.7917731347365
23.8177731347365 1.3232268652635 7.290226865263499
9.9107731347365 21.122226865263507 7.4393194042095026
14.902773134736501 18.1387731347365 4.053680595790496
18.601226865263506 10.7047731347365 30.174319404209502
8.9527731347365 1.4893194042094997 0.38468059579049907
1.083226865263498 18.6002268652635 8.9332268652635
22.6347731347365 3.0132268652634977 6.962680595790502
13.744680595790499 9.227680595790503 10.808773134736501
1.5997731347365 18.3442268652635 7.404226865263503
5.250680595790499 22.3717731347365 21.798226865263494
14.790226865263499 11.299680595790505 0.5042268652634974
8.681226865263504 1.5677731347365 6.386773134736501
0.23622686526349668 8.693226865263505 8.2222268652635
28.467226865263505 18.349773134736502 30.200319404209502
21.2842268652635 26.26468059579051 29.8262268652635
20.128226865263507 21.647226865263498 20.1976805957905
11.7047731347365 31.036226865263494 0.12722686526350202
31.703226865263495 26.434680595790496 29.5612268652635
9.4422268652635 18.982226865263506 30.6553194042095
12.9037731347365 27.8917731347365 10.8967731347365
2.7437731347365 29.9173194042095 2.4506805957905016
7.8232268652635 3.581773134736501 10.379226865263497
22.8393194042095 6.111680595790503 15.7497731347365
4.2712268652635 27.911226865263494 30.269680595790504
32.1397731347365 16.2547731347365 8.1892268652635
29.735226865263506 20.4842268652635 27.744226865263506
0.276680595790495 4.5097731347365 15.038226865263503
12.8613194042095 19.7607731347365 14.589226865263498
2.7927731347364997 9.3292268652635 6.410226865263503
5.947226865263495 4.214680595790497 32.1753194042095
0.6366805957904944 24.8786805957905 27.5667731347365
12.645773134736501 23.538226865263503 4.2622268652635
25.7357731347365 0.6011343263175064 10.7072268652635
2.6736805957905005 21.7257731347365 1.4452268652634999
22.8906805957905 17.038226865263503 0.17222686526350373
31.7987731347365 17.611226865263497 7.123680595790503
22.0937731347365 13.129226865263497 24.489773134736502
13.2857731347365 27.271226865263493 9.645226865263503
30.148226865263503 1.9592268652634957 9.8262268652635
21.5107731347365 1.0382268652635034 10.8703194042095
30.6337731347365 4.646773134736501 3.6022268652634963
10.959319404209499 19.206226865263496 13.897680595790504
4.5473194042094995 10.9547731347365 27.694226865263495
21.4707731347365 28.558319404209502 19.631226865263493
3.951680595790492 0.7382268652634991 24.9003194042095
29.5402268652635 30.523226865263503 1.1517731347364997
14.481680595790493 15.1857731347365 8.997134326317507
21.375226865263507 15.0336805957905 26.554226865263495
27.7147731347365 13.5407731347365 28.2077731347365
31.3172268652635 31.666773134736502 20.7896805957905
7.561680595790506 11.723680595790498 27.1437731347365
31.564773134736498 29.7727731347365 32.1182268652635
11.8167731347365 23.714226865263505 12.6982268652635
4.414226865263501 21.2006805957905 19.3562268652635
18.0127731347365 13.6567731347365 26.2347731347365
6.835773134736501 23.8592268652635 30.152226865263493
30.0728656736825 18.976680595790498 9.394226865263498
25.421319404209502 15.285226865263503 9.991680595790498
30.6127731347365 16.0607731347365 6.5812268652634955
25.010226865263498 13.6432268652635 17.4007731347365
23.398319404209502 23.7132268652635 14.8047731347365
19.9812268652635 0.2212268652634961 22.002865673682507
20.285773134736502 18.4917731347365 18.819226865263495
7.533226865263501 12.401226865263503 20.5917731347365
15.2222268652635 30.1733194042095 23.8607731347365
4.286226865263501 6.9017731347365 10.7817731347365
30.5407731347365 31.2817731347365 9.107134326317507
29.8887731347365 24.276226865263503 22.2043194042095
16.168680595790505 2.165773134736501 26.4782268652635
31.0187731347365 29.858226865263497 3.016226865263498
17.366226865263506 31.4413194042095 16.755226865263502
16.5972268652635 27.678773134736502 10.8147731347365
10.0647731347365 15.9597731347365 17.378319404209503
21.9707731347365 14.3352268652635 5.020226865263503
1.9926805957905032 31.388226865263498 4.411226865263501
29.9403194042095 5.540680595790505 3.1962268652635046
15.431226865263504 5.200680595790502 25.462226865263496
16.253319404209503 21.640226865263493 2.326134326317515
26.5517731347365 16.301226865263494 25.249226865263502
3.4536805957905017 31.803773134736502 7.276226865263503
30.6627731347365 6.129680595790504 4.240226865263502
18.0027731347365 27.3627731347365 1.0132268652634977
10.123226865263497 28.8967731347365 20.878226865263507
18.470226865263506 0.8397731347365003 29.8523194042095
5.208680595790497 14.217680595790497 22.032226865263503
29.269226865263498 12.834773134736501 14.644226865263498
5.586319404209501 6.4937731347365 1.404680595790495
5.440773134736501 20.6997731347365 18.7133194042095
1.2267731347365007 25.953319404209502 19.6496805957905
32.0557731347365 25.305773134736498 16.845226865263506
2.2402268652635016 0.5372268652634986 11.7177731347365
26.2423194042095 15.508226865263502 26.8483194042095
8.4328656736825 24.0237731347365 2.827226865263505
17.0177731347365 2.2542268652634974 26.936319404209502
21.171319404209502 19.5617731347365 12.805773134736501
13.3643194042095 17.0792268652635 22.697226865263495
18.1237731347365 28.4597731347365 21.3127731347365
22.599773134736502 25.434226865263504 19.3613194042095
7.8137731347365005 12.810680595790501 0.5546805957905008
17.7217731347365 3.0922268652634983 30.913226865263503
32.0237731347365 14.9553194042095 3.114226865263497
9.619680595790499 9.5577731347365 11.0257731347365
15.594773134736501 26.9937731347365 23.593226865263496
18.676226865263494 29.16668059579051 1.953773134736501
27.388226865263498 18.905226865263494 27.6913194042095
31.7782268652635 20.526226865263503 7.2302268652634964
8.4482268652635 2.2957731347365 13.4497731347365
19.6787731347365 9.706680595790502 21.0103194042095
16.687226865263504 9.585680595790492 31.1593194042095
32.1743194042095 31.3022268652635 0.7596805957904991
20.6297731347365 14.2227731347365 2.819226865263495
22.6217731347365 16.366226865263506 9.3747731347365
25.4357731347365 18.753226865263507 28.679226865263495
19.914226865263494 25.608773134736502 13.546319404209502
25.4782268652635 20.7113194042095 4.0007731347365
15.6197731347365 14.5713194042095 4.279226865263503
19.4493194042095 18.105226865263496 27.4647731347365
29.9178656736825 26.000319404209502 30.2197731347365
7.314680595790506 17.355226865263496 19.8147731347365
16.120226865263497 13.2977731347365 20.8797731347365
19.9722268652635 12.5332268652635 17.9397731347365
27.6987731347365 8.353226865263501 23.878226865263507
16.073680595790506 0.7176805957904975 29.3137731347365
7.7277731347365 21.0577731347365 26.0757731347365
18.4997731347365 9.5837731347365 5.876773134736501
4.761773134736501 8.703773134736501 13.3966805957905
17.7253194042095 13.678226865263504 23.683319404209502
22.9833194042095 15.725319404209504 17.535773134736502
2.4437731347364995 20.232226865263506 6.621226865263502
12.055134326317514 29.7483194042095 0.350226865263501
16.2273194042095 21.5792268652635 17.8103194042095
12.1657731347365 24.40168059579051 12.586226865263498
6.866680595790498 2.3812268652635 22.9637731347365
8.785226865263503 26.5937731347365 11.9743194042095
7.124226865263502 28.788773134736502 25.9647731347365
14.3142268652635 26.364773134736502 21.614680595790503
22.498680595790503 18.876226865263497 22.486773134736502
3.6426805957904946 21.8003194042095 2.2042268652635
2.1017731347365007 24.9633194042095 22.7962268652635
27.041226865263503 14.995680595790503 20.2907731347365
25.387226865263493 2.796226865263499 31.6952268652635
23.2347731347365 5.688226865263495 15.0242268652635
11.2297731347365 2.0826805957904924 6.2017731347365
10.953226865263495 23.6097731347365 2.293773134736501
0.7776805957904998 28.6047731347365 3.8756805957904987
27.5983194042095 5.6357731347365 13.7772268652635
20.9487731347365 6.241226865263499 28.3377731347365
1.8986805957904949 25.223226865263506 10.724226865263496
4.217226865263498 24.2557731347365 29.3927731347365
7.928680595790496 2.8636805957904983 13.273226865263503
18.9977731347365 0.3297731347365005 15.380680595790494
10.472319404209504 18.8387731347365 12.596680595790502
10.8112268652635 30.1682268652635 22.930680595790506
5.0417731347365 1.1007731347364995 6.4392268652635
20.529226865263503 0.6417731347364999 19.9367731347365
20.800226865263504 18.334226865263496 20.2907731347365
9.1247731347365 30.0517731347365 18.151226865263503
29.488319404209502 21.959958212628507 18.559680595790496
1.342134326317506 28.541226865263503 27.908226865263494
17.097680595790507 15.810226865263495 24.5377731347365
12.9037731347365 9.173226865263501 2.1647731347364996
10.1537731347365 27.450319404209502 3.9162268652635035
7.0366805957905 20.687226865263504 20.1877731347365
6.7622268652635 1.7472268652634995 24.2927731347365
29.444226865263495 14.7802268652635 9.4302268652635
9.353134326317516 21.8913194042095 26.8187731347365
22.3997731347365 30.3377731347365 20.6527731347365
30.9803194042095 14.236226865263497 7.3567731347365
26.6487731347365 9.245680595790503 4.8992268652635005
7.459226865263496 9.644680595790504 24.932226865263495
20.3767731347365 8.162226865263499 21.203226865263495
4.6233194042095 29.721226865263496 31.289226865263494
15.063680595790501 31.4517731347365 15.5327731347365
7.5982268652634986 29.4357731347365 17.470680595790498
14.3237731347365 24.622773134736498 20.3803194042095
21.9647731347365 16.9447731347365 20.200226865263495
15.9227731347365 0.2276805957905026 21.081319404209502
11.211226865263498 29.806773134736503 0.1787731347365007
28.0603194042095 20.9963194042095 21.851226865263506
6.1266805957905035 1.9642268652634982 29.628226865263507
10.6282268652635 25.626773134736503 20.4307731347365
8.703226865263495 21.764226865263502 3.5696805957905013
8.501680595790504 10.6037731347365 5.040773134736501
0.9052268652635007 18.0567731347365 7.120773134736501
13.117226865263497 17.725680595790507 25.404226865263503
28.9007731347365 14.6203194042095 7.0212268652635
9.8127731347365 27.7697731347365 23.715319404209502
0.31022686526349474 16.357680595790498 21.3947731347365
9.401226865263503 2.6026805957905026 11.931226865263504
12.422226865263504 17.6313194042095 18.1127731347365
8.6337731347365 15.70586567368251 22.121226865263502
16.7067731347365 15.3617731347365 2.7686805957904994
29.544773134736502 24.640226865263493 29.824680595790497
7.999226865263502 25.88968059579051 30.117226865263497
2.4167731347365002 32.0057731347365 23.0342268652635
4.424226865263499 30.526226865263503 26.430773134736498
14.0867731347365 27.3747731347365 0.8586805957905028
15.1907731347365 2.256865673682512 4.712226865263496
25.8427731347365 8.922226865263504 15.642773134736501
28.2493194042095 24.4857731347365 11.684680595790496
18.3507731347365 3.899773134736501 26.635865673682503
26.3082268652635 15.089226865263498 1.0052268652635021
12.282226865263503 18.6907731347365 8.038226865263503
18.7637731347365 19.746226865263502 6.618680595790494
25.578226865263495 16.306226865263504 32.095773134736504
4.053773134736501 2.0827731347365006 26.1753194042095
20.0017731347365 2.7237731347365006 0.8587731347365004
14.288226865263503 15.569319404209498 21.7467731347365
28.3622268652635 5.574680595790497 3.2847731347365006
31.901319404209502 16.2723194042095 13.8177731347365
1.5357731347365 20.885680595790504 2.401680595790495
3.3052268652634993 0.45031940420949823 20.4367731347365
19.4257731347365 27.075226865263495 4.964226865263498
10.0336805957905 31.3003194042095 31.381134326317508
16.711226865263505 17.089226865263505 13.8627731347365
28.949226865263505 24.404319404209502 16.7107731347365
16.8457731347365 20.8207731347365 31.0137731347365
4.063680595790501 27.6967731347365 8.8662268652635
29.4817731347365 22.9272268652635 26.2483194042095
12.796680595790505 19.0612268652635 7.647134326317513
25.4247731347365 9.4086805957905 2.9202268652635013
10.266680595790504 24.765226865263493 11.974226865263496
4.281226865263498 4.556226865263504 1.8707731347365009
17.7143194042095 13.671773134736501 21.2037731347365
14.6813194042095 28.2967731347365 1.2332268652634966
1.7072268652635003 23.6467731347365 14.9527731347365
7.681680595790496 15.477226865263496 20.199226865263505
0.06877313473649949 0.13322686526350225 9.409226865263498
23.501226865263497 28.7023194042095 29.933773134736498
10.520773134736501 7.097680595790493 9.703226865263495
12.209773134736501 20.912134326317513 31.814773134736498
7.033226865263501 12.8647731347365 1.1446805957905042
9.1027731347365 21.4773194042095 3.072226865263495
30.5533194042095 18.3877731347365 8.218226865263496
29.824680595790497 5.429680595790501 26.768226865263493
2.8353194042095033 21.151226865263503 7.344226865263501
9.524773134736499 16.8287731347365 16.875226865263507
9.6697731347365 29.3352268652635 26.2583194042095
0.4152268652634987 20.721319404209503 9.638680595790504
9.714226865263498 26.967226865263505 20.580226865263505
12.7742268652635 28.3837731347365 26.0893194042095
6.623773134736501 23.8967731347365 23.6593194042095
9.6367731347365 5.1342268652635 9.853680595790493
0.7563194042095027 31.141134326317513 7.390319404209503
20.6247731347365 12.4097731347365 10.976226865263499
11.2787731347365 2.4662268652635007 6.301226865263494
10.503680595790499 14.2907731347365 17.0857731347365
12.305680595790506 19.038226865263503 16.611226865263497
28.7697731347365 8.377226865263502 29.1097731347365
5.723680595790498 11.965226865263496 29.736773134736502
20.7797731347365 26.989773134736502 20.361773134736502
24.928226865263504 8.475226865263501 15.0117731347365
27.7927731347365 24.047773134736502 23.291773134736502
19.926226865263494 23.3367731347365 20.2907731347365
7.285226865263503 12.889773134736501 31.2782268652635
4.293773134736501 22.0306805957905 21.596226865263496
20.164226865263494 24.7027731347365 14.418226865263499
29.1122268652635 5.0032268652635 26.5917731347365
1.5032268652634997 29.6497731347365 16.866226865263506
30.565680595790496 7.827680595790497 26.8387731347365
21.226680595790498 27.378226865263507 29.351680595790498
17.0787731347365 20.506226865263493 18.8317731347365
25.9422268652635 13.2567731347365 24.5683194042095
2.171773134736501 1.2172268652634983 20.5372268652635
11.0957731347365 5.078773134736501 32.089865673682496
1.8482268652634986 15.4517731347365 7.357773134736501
3.1957731347365 21.7927731347365 3.8197731347365007
15.1957731347365 22.6203194042095 25.8357731347365
1.0636805957905011 9.5867731347365 28.6957731347365
11.526773134736501 28.2037731347365 29.2483194042095
15.653226865263498 2.3352268652635004 2.3517731347365007
13.703773134736501 19.982226865263506 18.9857731347365
29.2627731347365 5.140134326317508 1.0441343263175042
9.5517731347365 15.9927731347365 16.8093194042095
32.01222686526349 15.649319404209503 7.495773134736501
19.029319404209502 29.027226865263493 13.220226865263498
28.9703194042095 24.6967731347365 5.575226865263495
14.950226865263495 6.169226865263504 17.6952268652635
6.0937731347365 23.1813194042095 23.4193194042095
18.3233194042095 2.064680595790506 2.1342268652635
7.796773134736501 20.372319404209502 21.650226865263498
27.562773134736503 26.0897731347365 10.4147731347365
12.9397731347365 5.118226865263502 9.398226865263503
8.372680595790499 14.706773134736501 17.955226865263505
2.7267731347365007 2.0127731347365003 24.8947731347365
7.586226865263498 22.5792268652635 2.5812268652634955
21.5882268652635 18.158226865263494 20.487680595790508
17.446226865263505 11.561773134736502 21.683319404209502
8.5607731347365 10.8992268652635 10.434226865263504
10.993226865263502 20.0747731347365 31.3443194042095
4.456773134736501 21.654319404209502 1.7776805957904998
11.840226865263496 5.9017731347365 19.970226865263506
17.1417731347365 2.367226865263497 3.148226865263503
6.931773134736501 10.7222268652635 28.200226865263495
29.6203194042095 18.585865673682505 17.9997731347365
9.529226865263503 3.917226865263501 10.120680595790503
16.1747731347365 11.3867731347365 21.684226865263504
29.255226865263502 0.3527731347365002 19.996226865263502
20.599773134736502 13.559773134736501 10.953773134736501
2.4372268652635043 23.6397731347365 29.532319404209503
5.896773134736501 3.729226865263499 11.623226865263497
15.6432268652635 21.0577731347365 30.7867731347365
8.956680595790502 12.4777731347365 7.0276805957905
7.5273194042095035 22.005226865263502 21.4667731347365
18.1567731347365 30.0762268652635 4.933226865263499
3.225680595790493 22.6247731347365 3.045319404209504
28.2207731347365 3.6781343263175046 20.8453194042095
12.246226865263502 6.237319404209504 10.604319404209502
5.7742268652635005 7.681226865263504 7.611680595790503
8.681680595790496 23.1497731347365 2.0943194042095037
5.059773134736501 10.0607731347365 4.860226865263499
11.223226865263499 21.5277731347365 15.9632268652635
2.2177731347365004 17.3387731347365 25.8537731347365
22.3237731347365 1.0457731347364998 5.7302268652634964
19.9587731347365 27.039226865263494 5.7537731347365
12.975226865263501 15.8913194042095 24.2342268652635
16.1627731347365 23.536226865263494 28.1017731347365
29.474226865263496 8.1787731347365 26.8322268652635
20.846226865263496 15.981226865263501 27.7437731347365
31.78868059579051 23.2263194042095 6.4587731347365
21.0337731347365 22.410773134736502 27.6627731347365
10.057319404209498 21.9327731347365 15.0927731347365
7.357226865263499 12.431226865263504 26.616773134736498
24.0327731347365 23.8507731347365 10.4207731347365
21.8467731347365 9.145773134736501 28.9507731347365
25.339226865263505 22.4932268652635 1.664865673682499
22.677319404209502 24.947226865263495 20.5017731347365
14.3887731347365 14.0367731347365 6.0643194042095026
25.556773134736503 8.240680595790494 13.081773134736501
10.128680595790499 26.4087731347365 6.255226865263502
17.375226865263507 21.741226865263506 30.2987731347365
15.6937731347365 31.186773134736498 13.8527731347365
8.4942268652635 18.423226865263494 20.913226865263503
18.412680595790505 21.2487731347365 6.444226865263495
23.0193194042095 11.631680595790499 22.3733194042095
3.8507731347364995 5.827680595790497 1.9172268652635012
29.861773134736502 14.7077731347365 28.1707731347365
19.6147731347365 8.584319404209499 30.2637731347365
10.9987731347365 12.4722268652635 16.6557731347365
19.377226865263502 27.4817731347365 14.1552268652635
15.413226865263503 19.8137731347365 17.8047731347365
23.967226865263505 27.017319404209502 9.672226865263504
13.274319404209503 12.9632268652635 25.2992268652635
7.189680595790506 17.4957731347365 26.1187731347365
