23.2962268652635 5.892226865263503 25.808773134736498
5.7072268652635 29.0743194042095 21.864773134736502
23.6973194042095 2.6162268652634992 0.1732268652635014
14.9037731347365 15.908773134736501 18.2177731347365
3.6807731347364996 22.5967731347365 23.812226865263504
19.264226865263502 13.530319404209504 16.52668059579051
9.056226865263504 15.0552268652635 12.095226865263498
6.761680595790494 27.974773134736502 22.039226865263494
26.953226865263495 31.1587731347365 27.202680595790497
0.6592268652634985 11.310226865263495 17.0197731347365
28.1563194042095 24.8377731347365 28.617773134736503
24.016226865263498 8.660226865263503 4.0412268652635035
9.275134326317513 17.626226865263497 16.5433194042095
24.705226865263505 24.2047731347365 10.311319404209502
4.0617731347365 4.252680595790494 8.798319404209504
11.2217731347365 13.0897731347365 30.53568059579051
4.087226865263496 4.663226865263503 1.9222268652635037
31.4017731347365 13.5002268652635 14.435680595790501
8.255226865263502 1.3426805957904975 29.2883194042095
14.849226865263496 30.809226865263504 3.8956805957904947
10.5687731347365 15.278680595790505 13.2987731347365
19.139319404209502 9.611226865263497 13.1707731347365
11.0337731347365 6.610226865263499 16.4176805957905
4.735773134736501 14.459226865263496 31.128226865263507
12.476226865263499 8.105226865263496 13.4037731347365
8.535680595790495 6.481226865263501 31.404226865263503
11.105226865263496 15.219773134736501 12.3322268652635
24.6517731347365 12.5507731347365 0.05722686526349463
25.6427731347365 19.828226865263495 8.0537731347365
5.081773134736501 4.3377731347365 2.3762268652634972
22.389226865263502 4.0867731347365 30.6427731347365
9.160680595790495 9.124134326317503 28.0758656736825
18.6783194042095 17.266226865263498 14.2247731347365
2.653134326317513 21.9932268652635 0.3012268652634944
16.828226865263495 12.7867731347365 22.2806805957905
23.590319404209502 5.1052268652634964 17.5897731347365
24.392319404209502 14.277319404209504 29.9097731347365
7.604680595790498 23.9617731347365 5.4497731347365
29.193226865263505 6.9337731347365 17.878226865263507
16.044226865263504 11.946226865263505 27.39568059579051
16.012319404209503 27.767319404209502 15.7667731347365
7.857773134736501 18.6646805957905 26.552773134736498
22.6673194042095 28.794226865263504 29.3827731347365
17.9923194042095 26.6767731347365 25.7997731347365
31.5377731347365 13.4662268652635 5.798226865263501
4.9117731347364995 2.9406805957904965 1.6342268652635
10.8207731347365 9.718226865263496 30.1457731347365
1.475680595790493 17.1007731347365 7.4597731347364995
20.5563194042095 16.8377731347365 27.3457731347365
17.7687731347365 14.482226865263499 26.4392268652635
28.28568059579051 11.9757731347365 10.595680595790498
1.7743194042095034 17.172226865263504 26.4737731347365
4.010226865263498 2.235226865263499 23.925773134736502
15.0587731347365 12.9722268652635 15.761226865263502
28.6657731347365 17.5427731347365 1.7912268652635035
14.982773134736501 18.464226865263505 6.766226865263498
9.561680595790506 27.443226865263505 26.899226865263493
21.0947731347365 24.9437731347365 22.1397731347365
16.5147731347365 3.073319404209503 11.456226865263496
18.0253194042095 30.9097731347365 26.047773134736502
6.0617731347365 24.88068059579051 12.421773134736501
17.5187731347365 19.6947731347365 25.4332268652635
24.9483194042095 18.967226865263505 18.797680595790496
27.028865673682503 20.1547731347365 2.7903194042095016
27.4302268652635 14.3847731347365 21.3846805957905
5.489226865263497 21.553773134736502 31.769226865263498
6.9026805957905 30.0747731347365 1.834680595790502
0.15122686526350293 10.8157731347365 11.327226865263505
5.353319404209504 8.985773134736501 31.5983194042095
27.1553194042095 19.3597731347365 3.2247731347365
2.7576805957905037 19.878226865263507 19.9673194042095
22.968680595790502 24.4667731347365 1.685680595790501
19.9717731347365 4.438226865263495 2.705226865263505
13.5417731347365 8.8587731347365 19.297773134736502
26.2483194042095 18.711226865263505 28.1467731347365
5.6357731347365 31.211226865263505 13.206773134736501
22.928226865263504 17.794226865263504 1.2617731347365009
2.942680595790506 3.510680595790504 11.669226865263504
6.511773134736501 15.578319404209498 18.1527731347365
24.7423194042095 20.264226865263502 19.4407731347365
6.764773134736501 31.4607731347365 9.996226865263502
25.8943194042095 29.452226865263505 7.466773134736501
12.725226865263501 27.883226865263502 20.6997731347365
25.801226865263494 9.561773134736502 10.5122268652635
31.0013194042095 28.7656805957905 4.340226865263496
15.8397731347365 3.760680595790504 23.483773134736502
2.4972268652634995 19.352226865263496 20.5177731347365
26.397680595790504 28.054226865263495 5.9437731347364995
16.848226865263506 5.049773134736501 4.265680595790499
8.5302268652635 2.776226865263503 9.3007731347365
2.525865673682503 25.081226865263496 27.6297731347365
6.652226865263501 31.9067731347365 29.6353194042095
22.5283194042095 27.9437731347365 8.4647731347365
13.565226865263504 19.852773134736502 22.804226865263495
6.8917731347365 3.0886805957904926 3.681226865263504
29.9547731347365 0.35777313473650096 12.7637731347365
18.551226865263494 15.6337731347365 29.7757731347365
7.063226865263495 13.9477731347365 31.6032268652635
8.638226865263498 25.2573194042095 18.2222268652635
18.3317731347365 17.238226865263506 6.4657731347365
2.824680595790497 19.450226865263495 0.6012268652634987
27.6157731347365 28.4237731347365 6.103226865263501
19.9203194042095 9.5942268652635 9.2772268652635
31.1802268652635 24.9362268652635 23.9247731347365
3.2926805957905003 23.0247731347365 26.3747731347365
23.1017731347365 19.2847731347365 3.2827731347365
26.16068059579051 9.6977731347365 7.377319404209498
3.5012268652634972 6.292226865263501 10.460319404209503
5.9167731347365 10.681226865263504 24.248226865263497
5.6126805957904935 10.056773134736499 10.3277731347365
5.227680595790503 27.5732268652635 4.255226865263502
8.255226865263502 14.808680595790506 1.1392268652635025
26.500226865263507 20.8383194042095 13.631680595790499
5.312773134736501 4.278134326317513 8.086226865263498
5.630226865263502 30.254226865263497 29.8917731347365
5.902226865263501 28.8337731347365 12.2807731347365
15.3117731347365 19.173226865263494 8.145773134736501
0.8017731347365 31.5977731347365 27.315773134736503
9.464319404209501 19.881226865263493 15.255226865263502
15.139134326317503 18.440226865263504 24.5372268652635
13.703773134736501 23.6327731347365 1.3667731347364995
22.747226865263507 1.8707731347365009 27.004226865263497
22.2803194042095 8.5017731347365 2.9562268652634955
7.0357731347365 30.9743194042095 30.6037731347365
19.6887731347365 25.1737731347365 22.2683194042095
2.719680595790493 28.0353194042095 18.5702268652635
19.230773134736502 25.249226865263502 20.333226865263505
26.648319404209502 12.0337731347365 24.0107731347365
6.3587731347365 9.635226865263498 10.702680595790497
19.3193194042095 19.521226865263493 29.6593194042095
23.125773134736498 28.363773134736498 16.018226865263493
10.4877731347365 15.1117731347365 6.101680595790498
19.413773134736502 19.385226865263498 5.6126805957904935
19.4602268652635 17.3457731347365 0.9307731347364996
22.855680595790503 4.451680595790492 17.78013432631751
26.437773134736503 21.959319404209502 8.937680595790496
4.740226865263502 13.827680595790497 29.0483194042095
0.23577313473650108 32.1307731347365 8.5537731347365
15.3487731347365 2.8247731347364997 5.1862268652634995
13.725680595790493 8.0032268652635 15.5516805957905
1.3682268652635017 4.5877731347365 26.933773134736498
7.1862268652634995 26.3277731347365 28.967226865263505
6.9367731347365 8.3262268652635 18.053226865263504
27.677773134736498 12.2407731347365 11.079319404209503
19.7907731347365 11.7587731347365 25.8927731347365
23.901226865263503 16.9703194042095 2.1526805957904998
9.961226865263498 16.169226865263504 27.559226865263504
27.1687731347365 25.983773134736502 30.551226865263494
12.833226865263498 8.982319404209502 25.271226865263493
30.264226865263502 21.3737731347365 23.379226865263497
3.101680595790498 3.6867731347365 13.177680595790505
25.0297731347365 30.776134326317504 31.822226865263495
16.759773134736502 16.506226865263493 24.7263194042095
0.8806805957904942 19.300226865263504 21.8877731347365
22.4812268652635 28.4733194042095 16.6693194042095
17.6532268652635 21.8387731347365 31.9083194042095
28.8977731347365 25.151319404209502 29.7497731347365
26.946226865263505 10.591319404209504 29.0207731347365
15.534319404209501 14.917226865263501 5.4467731347365
28.4722268652635 12.093680595790502 17.1877731347365
13.462773134736501 16.487680595790508 4.311680595790506
5.207773134736501 14.5762268652635 1.5302268652635007
24.0603194042095 5.9397731347365 31.677773134736498
15.651226865263503 26.2927731347365 30.5547731347365
4.565226865263504 24.512226865263493 2.478226865263501
7.335773134736501 8.1723194042095 17.657226865263503
22.5337731347365 5.607773134736501 19.042226865263494
14.0522268652635 17.732226865263506 7.3727731347365
2.799773134736501 21.0367731347365 5.255226865263502
18.8517731347365 13.1772268652635 5.650680595790504
4.8722268652634995 31.3877731347365 12.915226865263499
12.2557731347365 17.8987731347365 9.121226865263502
18.205226865263505 14.195680595790506 25.922773134736502
7.229226865263499 10.2772268652635 4.453680595790502
13.623226865263497 4.792226865263501 11.0947731347365
0.5082268652635022 24.9697731347365 7.402773134736501
21.8537731347365 8.221226865263496 29.6687731347365
28.495226865263497 25.0957731347365 23.629226865263497
3.775226865263498 2.3962268652635004 23.232680595790498
22.105226865263496 11.1007731347365 15.0567731347365
13.809773134736501 21.9417731347365 6.038226865263503
24.8543194042095 15.2132268652635 4.497680595790499
19.1847731347365 12.331226865263496 26.2077731347365
16.2807731347365 2.4416805957905012 2.424773134736501
28.8657731347365 18.3627731347365 23.310226865263495
20.928226865263504 3.147226865263498 5.093680595790502
26.302773134736498 11.114680595790503 26.8927731347365
30.3383194042095 25.038226865263503 4.934226865263504
27.8382268652635 25.044773134736502 22.9293194042095
24.858773134736502 6.0542268652634945 1.6302268652635021
30.892319404209502 25.267226865263503 7.721226865263496
0.7442268652634993 12.819680595790501 15.6597731347365
20.253226865263507 23.2687731347365 20.882865673682502
0.20322686526349543 4.392226865263503 4.733680595790503
30.515226865263493 31.4187731347365 29.0402268652635
3.0712268652635046 18.134226865263493 21.9063194042095
7.751226865263497 13.464680595790497 3.6522268652635006
12.2222268652635 8.452226865263505 2.6452268652635027
24.2983194042095 18.620680595790503 18.206226865263496
0.5352268652635033 9.9777731347365 22.973226865263506
2.9597731347364995 2.7186805957905023 28.931226865263504
4.245226865263497 0.12568059579049873 18.6407731347365
23.514226865263502 21.322226865263495 22.0492268652635
26.0433194042095 14.9497731347365 24.1617731347365
5.549773134736501 14.907226865263503 8.142773134736501
21.2902268652635 28.810226865263495 15.881319404209503
14.1772268652635 14.3377731347365 9.492134326317512
24.5563194042095 12.9662268652635 23.6737731347365
29.989773134736502 5.139773134736501 30.524226865263493
12.1772268652635 28.405226865263494 20.206226865263496
24.7827731347365 21.301226865263494 1.4506805957905016
22.3927731347365 6.2917731347365 19.631226865263493
22.6597731347365 26.4033194042095 25.7907731347365
18.483773134736502 17.5167731347365 8.2777731347365
25.5383194042095 9.5417731347365 1.251773134736501
7.5762268652635 12.397680595790504 1.0942268652635008
26.7827731347365 19.3997731347365 1.3657731347365
6.113226865263499 21.4787731347365 11.4667731347365
27.785226865263503 15.4557731347365 11.653226865263498
18.8472268652635 17.4927731347365 9.011319404209498
15.984680595790508 5.2716805957904995 4.964319404209501
24.765226865263493 15.6402268652635 14.7682268652635
16.8717731347365 22.3797731347365 25.2053194042095
24.985319404209502 9.1367731347365 13.184226865263504
0.8872268652635 26.0407731347365 10.053226865263504
25.9827731347365 15.0503194042095 5.859226865263501
25.7727731347365 4.3407731347365 0.45168059579049213
14.918680595790505 27.7753194042095 8.356226865263501
6.356226865263501 25.003773134736498 10.4417731347365
16.2867731347365 24.519865673682503 25.7907731347365
9.600319404209504 24.208226865263505 0.607680595790498
4.811680595790506 31.420226865263494 12.227680595790503
16.1437731347365 28.836226865263505 4.723773134736501
11.946680595790497 22.924680595790505 29.351226865263506
5.546773134736501 26.0287731347365 3.7217731347365
26.6562268652635 28.7303194042095 22.6627731347365
30.798226865263494 25.2613194042095 9.796226865263499
10.4362268652635 27.980226865263496 10.3447731347365
1.7626805957904992 15.370680595790503 13.8412268652635
11.2927731347365 10.975680595790493 12.275226865263498
16.3353194042095 24.142226865263503 11.8183194042095
3.5082268652635022 6.0157731347365 20.7067731347365
13.3437731347365 14.9632268652635 8.575226865263495
20.4182268652635 31.1733194042095 0.3817731347365001
15.940773134736501 24.8163194042095 31.2807731347365
5.713680595790493 2.9062268652634984 15.803680595790496
28.2697731347365 11.7277731347365 15.4087731347365
11.353680595790493 29.8232268652635 6.7287731347365
5.5122268652635 12.950226865263495 28.000319404209502
29.8052268652635 4.959226865263496 17.742226865263497
6.721680595790502 15.6693194042095 9.837680595790502
13.389680595790495 12.8472268652635 15.7866805957905
9.781226865263498 5.397680595790504 23.2253194042095
3.333226865263498 10.2562268652635 16.119226865263506
17.5792268652635 1.7597731347365002 16.849773134736502
0.29222686526350117 25.8947731347365 10.523226865263503
30.4803194042095 1.2686805957904994 2.033226865263501
11.2047731347365 28.352773134736502 6.296773134736501
27.625773134736498 30.8943194042095 28.6832268652635
28.6033194042095 31.4443194042095 26.681226865263504
1.1387731347364998 30.5177731347365 27.0707731347365
3.165773134736501 26.2127731347365 19.9307731347365
29.224773134736502 14.6307731347365 21.413773134736502
21.392319404209502 21.8607731347365 31.744226865263506
11.1297731347365 11.522680595790504 10.534226865263498
24.116319404209502 17.6802268652635 16.7087731347365
19.035773134736502 24.4392268652635 4.781226865263498
18.317773134736502 18.742226865263497 5.5267731347365
12.2287731347365 30.294226865263504 20.1217731347365
17.8977731347365 32.0087731347365 11.035226865263503
1.2242268652634962 26.492226865263497 11.9617731347365
12.0907731347365 13.299226865263499 14.779319404209499
15.6947731347365 24.3043194042095 31.372319404209502
0.051773134736500026 1.3172268652634997 11.6617731347365
19.4567731347365 14.2727731347365 21.9057731347365
12.512134326317508 23.9512268652635 3.7897731347364996
18.5492268652635 2.9462268652635046 3.9122268652634986
11.162226865263499 14.0792268652635 27.419773134736502
10.9206805957905 30.471319404209503 2.749226865263502
9.324680595790497 31.429226865263495 2.6802268652634993
17.750226865263507 13.4757731347365 31.4116805957905
27.138226865263498 31.9997731347365 14.187680595790496
3.8297731347365005 32.0467731347365 5.724226865263496
21.0312268652635 9.613773134736501 11.2442268652635
0.10177313473650074 20.795226865263494 10.3787731347365
15.6117731347365 23.878226865263507 12.0272268652635
21.5457731347365 23.084226865263496 0.5742268652635047
3.2216805957905024 24.0957731347365 26.2997731347365
11.853226865263501 30.630226865263502 26.0977731347365
10.3662268652635 4.849226865263496 22.900226865263498
3.7767731347364997 28.803773134736502 14.684773134736501
20.5942268652635 31.8123194042095 31.8472268652635
10.5857731347365 28.1953194042095 9.279773134736502
7.174773134736501 0.2572268652634975 28.1613194042095
11.4907731347365 18.1977731347365 29.488319404209502
5.513680595790504 30.488226865263506 18.8647731347365
27.413773134736502 15.5993194042095 1.915680595790505
31.9697731347365 7.845226865263498 5.328773134736501
9.373226865263497 11.7347731347365 10.117773134736499
32.0777731347365 29.3877731347365 1.989680595790503
0.7677731347365011 10.6892268652635 25.5462268652635
17.6557731347365 3.5612268652634995 17.876226865263497
20.9927731347365 3.860226865263499 7.6097731347365
13.8527731347365 22.2393194042095 20.298226865263494
19.255226865263502 12.358226865263497 4.711680595790497
1.2572268652634975 5.495680595790503 27.0432268652635
8.5127731347365 3.0642268652634996 4.748773134736501
26.866226865263506 18.920226865263494 6.9747731347365
32.1607731347365 5.462680595790502 5.2842268652634985
8.145226865263503 31.8407731347365 23.792226865263494
4.353226865263501 30.1373194042095 10.1462268652635
15.892773134736501 6.873773134736501 20.075226865263495
17.635226865263498 31.020319404209502 5.285226865263503
16.1457731347365 27.2807731347365 21.5857731347365
32.1033194042095 19.876226865263497 20.5432268652635
15.517319404209498 0.4417731347365006 9.960680595790492
21.3303194042095 25.621226865263502 28.3077731347365
18.4507731347365 30.086226865263505 32.065319404209504
30.625773134736498 18.4897731347365 0.37077313473650086
7.441226865263495 12.6287731347365 2.6196805957904985
10.8457731347365 29.8502268652635 3.6902268652635044
9.535226865263503 21.6277731347365 12.4547731347365
7.8962268652635 28.486773134736502 15.2772268652635
19.485226865263506 25.6677731347365 10.7277731347365
29.563226865263495 4.769680595790504 24.223865673682496
17.3592268652635 15.2477731347365 15.258226865263502
31.9017731347365 28.908226865263494 4.665773134736501
8.8157731347365 26.0912268652635 17.4182268652635
2.0982268652634986 25.6957731347365 9.6027731347365
29.766226865263498 24.166773134736502 2.4717731347365
5.655226865263501 21.4473194042095 30.3477731347365
25.165680595790505 10.226226865263499 24.8227731347365
7.124226865263502 15.888680595790504 30.2677731347365
9.9077731347365 17.4187731347365 23.5887731347365
24.860226865263506 1.4252268652635038 22.1037731347365
12.5007731347365 7.263226865263498 15.3587731347365
11.154226865263503 18.147226865263498 16.825226865263495
9.874226865263502 1.478226865263501 20.002226865263502
0.6902268652635044 9.5152268652635 12.7162268652635
17.718226865263496 14.0867731347365 0.3542268652634988
21.869226865263506 28.238773134736498 16.270319404209502
4.9717731347365 15.258680595790494 30.14568059579051
31.9833194042095 12.1582268652635 21.7813194042095
1.7922268652635012 17.307226865263495 28.0487731347365
17.4302268652635 4.1617731347364995 28.9617731347365
15.90468059579051 17.2593194042095 25.9842268652635
23.1832268652635 26.2167731347365 2.0273194042095035
19.1297731347365 9.7787731347365 14.502226865263502
3.3057731347364996 20.693226865263505 11.476680595790498
22.935226865263495 9.1727731347365 15.407226865263503
4.9747731347365 28.604680595790498 1.6777731347364995
6.937226865263504 27.516226865263498 21.283226865263494
20.4272268652635 8.798226865263501 8.306226865263504
7.677226865263499 29.939319404209503 0.3327731347365006
7.531680595790505 21.026226865263503 16.7717731347365
10.3412268652635 2.7577731347364995 21.6817731347365
15.242680595790503 19.7507731347365 16.4787731347365
17.464226865263505 26.5437731347365 30.3487731347365
9.8992268652635 0.7806805957904999 17.6547731347365
5.261226865263502 15.4137731347365 29.0077731347365
11.8967731347365 29.2043194042095 20.2493194042095
16.411226865263494 26.8977731347365 7.728226865263501
20.6337731347365 3.2842268652634985 5.7742268652635005
23.922680595790496 14.714226865263498 13.879226865263497
16.864226865263497 5.530773134736501 30.4077731347365
14.85186567368251 15.825319404209498 19.3637731347365
30.1973194042095 32.0187731347365 21.8323194042095
29.2897731347365 24.943226865263505 24.123773134736503
1.502680595790494 17.9572268652635 24.574226865263505
17.4122268652635 14.918773134736501 0.0862268652634981
22.4893194042095 13.235319404209502 18.0777731347365
14.430680595790506 0.06468059579050589 2.4176805957905003
27.9453194042095 10.4026805957905 6.074319404209501
23.4547731347365 15.8347731347365 22.944226865263495
28.7777731347365 3.796773134736501 17.2583194042095
22.099773134736502 16.510680595790504 23.7737731347365
1.6902268652635044 24.3437731347365 27.5993194042095
9.910226865263503 17.557226865263495 23.8703194042095
32.107773134736505 12.8177731347365 16.0807731347365
24.822226865263495 20.1497731347365 8.1027731347365
24.8993194042095 14.8947731347365 6.794680595790496
2.8782268652634997 28.0792268652635 13.943226865263505
18.2042268652635 13.175226865263504 26.450226865263495
22.0733194042095 11.5942268652635 22.174680595790505
5.546773134736501 24.4727731347365 11.011680595790494
25.4443194042095 7.9937731347365 2.1936805957904966
13.502226865263502 0.1126805957904935 27.250319404209502
9.797226865263504 24.501773134736503 0.10322686526350111
2.9052268652635007 19.8107731347365 21.2027731347365
19.874226865263502 20.821226865263505 19.185226865263495
25.095226865263506 15.626226865263497 16.968226865263496
13.7397731347365 10.1647731347365 6.430226865263499
2.440773134736501 11.2117731347365 9.919226865263504
17.805319404209502 23.7257731347365 13.982773134736501
11.2117731347365 18.8883194042095 17.3022268652635
25.843226865263496 28.0183194042095 14.612319404209504
19.6623194042095 15.785226865263503 30.9147731347365
9.113773134736501 25.6943194042095 26.6243194042095
16.254226865263497 1.4567731347365012 2.860226865263499
31.0257731347365 24.855773134736502 6.102680595790503
20.6737731347365 1.290680595790505 26.6682268652635
11.888226865263498 1.1212268652635018 17.0177731347365
3.8552268652634964 21.2897731347365 23.9857731347365
19.413226865263503 24.2833194042095 22.508226865263502
30.7927731347365 6.816226865263495 17.7597731347365
27.1587731347365 9.916226865263503 25.005226865263502
15.991226865263506 24.4477731347365 18.8397731347365
10.952680595790497 16.1867731347365 25.759226865263493
10.358226865263497 6.6402268652635 15.4163194042095
10.6587731347365 1.9561343263175104 29.7833194042095
0.7762268652635029 18.7797731347365 9.2377731347365
20.6767731347365 13.3247731347365 27.181226865263504
20.260226865263498 17.625226865263507 14.461226865263498
29.1517731347365 19.5497731347365 18.614226865263497
28.4833194042095 23.048226865263494 16.6883194042095
0.22868059579049316 5.942134326317515 31.254865673682502
19.5297731347365 16.417226865263494 28.6917731347365
9.4052268652635 30.9267731347365 22.3197731347365
13.1406805957905 21.696226865263505 15.8842268652635
14.474226865263496 22.2157731347365 2.069226865263495
18.3447731347365 10.3627731347365 18.020226865263503
29.4857731347365 7.860226865263499 13.6633194042095
23.622226865263507 20.099680595790502 23.993680595790508
7.7477731347365 13.676226865263494 1.719773134736501
22.2777731347365 8.6367731347365 30.4047731347365
14.6113194042095 8.077680595790497 15.5407731347365
25.517319404209502 15.187226865263504 6.8496805957905025
29.741773134736498 4.1906805957904965 16.5227731347365
21.2113194042095 9.037226865263499 1.7032268652634954
5.909773134736501 2.8357731347365007 13.725319404209504
4.7896805957905 4.808680595790506 13.3387731347365
14.299773134736501 31.0343194042095 4.0847731347364995
19.022226865263498 17.0603194042095 30.797773134736502
28.2203194042095 24.242226865263497 15.6787731347365
17.087226865263496 13.807226865263495 28.7372268652635
25.867226865263497 19.083226865263505 3.3617731347365005
7.0152268652635 29.4863194042095 0.7802268652635007
2.822773134736501 26.985319404209502 22.4927731347365
1.841773134736501 30.282226865263503 26.1077731347365
31.6263194042095 0.9407731347365011 3.1222268652634995
3.3217731347364996 4.172226865263504 27.914226865263494
25.6203194042095 15.4627731347365 5.8987731347365
13.1707731347365 16.2747731347365 5.135226865263498
29.6002268652635 6.8673194042095 24.622773134736498
5.580680595790497 10.767680595790495 17.513588056844497
17.604680595790498 2.8936805957904994 4.120680595790503
18.8897731347365 30.0573194042095 31.6703194042095
6.371680595790494 16.089680595790497 10.225680595790493
10.663680595790495 2.6732268652635014 4.426226865263494
21.5677731347365 9.971319404209499 13.248226865263497
28.007226865263497 17.6897731347365 2.9506805957905016
5.7187731347365 8.4587731347365 12.948680595790506
18.2627731347365 16.9182268652635 13.626226865263497
2.9062268652634984 21.7657731347365 24.500773134736498
1.3852268652634976 6.115226865263502 18.9367731347365
31.4467731347365 19.042226865263494 17.740680595790508
20.173226865263494 25.525226865263498 11.576680595790492
0.2656805957904993 5.722773134736499 13.955680595790497
22.9812268652635 21.7243194042095 31.505226865263502
23.754226865263497 2.4097731347365006 25.5407731347365
15.793226865263499 3.4163194042094993 21.7877731347365
2.4353194042094977 26.854226865263506 18.937226865263504
19.2393194042095 12.6217731347365 15.023226865263503
3.552226865263499 9.3142268652635 30.9657731347365
16.54168059579051 5.377226865263502 23.6247731347365
7.376226865263497 27.2757731347365 20.0403194042095
6.0306805957905 11.5407731347365 23.854226865263506
24.876865673682502 19.309134326317505 0.9357731347365004
0.8146805957905059 17.047226865263504 27.0197731347365
21.8532268652635 26.8887731347365 27.246680595790508
21.5672268652635 31.098226865263506 15.798319404209504
5.359226865263501 3.2977731347365005 16.1417731347365
28.890226865263493 17.821226865263505 2.7446805957904985
17.8587731347365 29.675773134736502 26.683680595790506
32.02122686526349 10.4197731347365 25.2237731347365
30.2773194042095 28.7597731347365 18.358680595790503
13.258226865263502 17.6017731347365 7.912680595790505
4.945680595790506 22.798226865263494 6.8777731347365005
15.028226865263498 27.623773134736503 3.667319404209504
20.739226865263497 11.480226865263496 14.118319404209497
23.9067731347365 6.652773134736501 25.994226865263506
16.533226865263494 15.525319404209501 21.636226865263502
17.3397731347365 22.8112268652635 20.9782268652635
19.3137731347365 15.8787731347365 29.193226865263505
1.7186805957905023 16.4617731347365 27.708226865263505
2.4322268652634946 6.361226865263497 26.488226865263506
7.990226865263502 10.8966805957905 22.388226865263498
17.7987731347365 24.3847731347365 12.529226865263503
21.9362268652635 3.358680595790503 6.3177731347365
17.4667731347365 26.093319404209502 25.392226865263503
24.1742268652635 1.3402268652634959 26.5907731347365
27.4217731347365 19.0972268652635 2.339134326317506
6.242226865263497 7.660226865263503 18.631226865263493
8.276226865263503 21.812226865263504 3.9422268652634997
24.7097731347365 27.8577731347365 14.865319404209497
22.816226865263495 24.4602268652635 0.999680595790494
29.2617731347365 2.940773134736501 15.3697731347365
2.3696805957904985 3.627226865263502 22.5487731347365
10.8232268652635 0.3357731347365007 26.875226865263507
21.2257731347365 21.8513194042095 0.47022686526349844
13.7042268652635 20.718319404209502 8.163226865263503
7.5792268652635 8.2057731347365 13.862226865263501
12.955226865263505 18.5213194042095 18.217680595790497
22.6413194042095 13.8137731347365 16.9577731347365
6.1662268652635035 27.4693194042095 0.9492268652635047
11.5773194042095 30.052319404209502 4.8027731347364995
1.2072268652635003 31.0247731347365 26.572226865263495
25.934773134736503 31.837226865263496 18.1737731347365
30.7027731347365 28.252226865263502 3.302226865263499
7.3056805957905055 19.138226865263498 17.449226865263505
7.5142268652635025 21.852773134736502 12.325773134736501
4.702226865263505 25.218319404209502 27.621865673682507
19.277226865263493 13.0152268652635 26.733773134736502
6.736226865263497 19.072226865263495 18.405226865263494
7.1887731347365005 10.449680595790497 23.1742268652635
26.0492268652635 32.1607731347365 31.8927731347365
28.9537731347365 7.944319404209498 13.8837731347365
20.138226865263498 4.782226865263503 12.8412268652635
10.806226865263504 6.754773134736499 2.2642268652635025
6.3527731347365 11.105226865263496 23.2567731347365
5.5623194042095 9.431680595790496 5.015680595790499
2.5982268652634986 24.9842268652635 19.0507731347365
10.1507731347365 10.9767731347365 29.3507731347365
13.3262268652635 7.421226865263499 15.0397731347365
16.354226865263506 4.319226865263495 3.8662268652634992
25.316226865263495 7.419226865263504 16.4092268652635
31.6152268652635 19.181226865263504 8.807319404209498
13.034226865263498 10.8247731347365 12.934773134736501
30.114226865263497 14.461226865263498 3.708226865263498
18.711226865263505 15.480226865263496 0.3782268652634997
29.337319404209502 31.7043194042095 7.313319404209498
30.9017731347365 23.6323194042095 4.8857731347365
13.5317731347365 15.998773134736501 3.471226865263496
24.8547731347365 0.7086805957904971 28.020226865263503
6.0366805957905 22.8187731347365 11.772680595790504
8.5852268652635 21.005226865263502 1.1392268652635025
16.769226865263498 3.6902268652635044 2.7312268652635012
11.4452268652635 32.004680595790504 27.0093194042095
13.6237731347365 26.0377731347365 19.144226865263498
26.175773134736502 17.6122268652635 7.710773134736501
6.934226865263504 29.187226865263504 2.096226865263496
30.703319404209502 9.3992268652635 22.536226865263494
21.6377731347365 0.6737731347364999 13.741680595790498
3.3397731347365003 8.755680595790494 17.5537731347365
5.097226865263501 6.266226865263498 26.7437731347365
2.120226865263497 15.6367731347365 27.379226865263497
31.117226865263497 0.9497731347364997 11.565226865263504
1.9322268652634946 32.1603194042095 17.685226865263495
23.4332268652635 4.478680595790493 15.375319404209502
1.2017731347365004 10.462773134736501 9.870773134736499
14.224680595790502 31.8453194042095 28.709319404209502
4.529680595790495 15.198319404209503 10.865680595790494
22.027226865263493 29.0687731347365 16.832680595790507
8.699226865263505 13.986226865263497 12.276226865263503
12.4367731347365 8.4617731347365 25.834226865263496
18.7487731347365 4.317680595790506 18.307226865263495
4.0182268652635 4.995773134736501 26.002226865263502
19.325226865263495 20.1217731347365 7.093226865263496
12.3913194042095 15.3627731347365 3.4877731347365
27.346319404209503 31.4247731347365 28.2227731347365
21.812226865263504 0.5247731347365008 21.6837731347365
22.004226865263497 10.0737731347365 7.142680595790495
4.847226865263501 0.9867731347365005 14.9912268652635
15.3872268652635 21.7547731347365 23.797773134736502
25.767226865263503 9.258319404209498 7.867680595790503
29.3323194042095 7.8717731347365 14.6552268652635
19.8412268652635 7.290226865263499 17.604226865263506
25.4047731347365 29.2257731347365 22.1182268652635
10.130226865263502 28.5967731347365 5.380680595790494
29.5883194042095 15.118680595790494 2.6117731347365005
30.066226865263495 27.7827731347365 15.0367731347365
15.674773134736501 6.857680595790498 30.5097731347365
30.164226865263494 20.256226865263493 13.1837731347365
21.3933194042095 22.5547731347365 31.2962268652635
9.766680595790504 11.929226865263495 29.8303194042095
3.3017731347365 7.254226865263497 18.1407731347365
3.884680595790499 22.721226865263496 32.0587731347365
2.384680595790499 19.5612268652635 21.503773134736498
10.3767731347365 28.3297731347365 4.860680595790498
4.8996805957905 29.7992268652635 31.3322268652635
28.907319404209503 31.1593194042095 8.007226865263497
13.3052268652635 17.095680595790498 0.6886805957905011
31.9717731347365 26.972680595790507 24.4237731347365
15.991226865263506 10.520226865263503 22.126226865263497
11.3962268652635 15.287226865263499 8.4022268652635
16.084226865263496 4.808226865263499 23.6047731347365
31.3442268652635 2.3996805957904996 4.0396805957905
28.8367731347365 10.729226865263499 16.1627731347365
13.5647731347365 25.1503194042095 19.9122268652635
13.794226865263504 20.4983194042095 16.139226865263502
5.8182268652635045 13.9797731347365 30.7222268652635
7.315226865263504 9.188226865263495 19.6487731347365
4.5327731347365 15.1497731347365 28.7053194042095
3.468226865263496 20.4517731347365 20.380226865263502
6.790680595790505 26.1892268652635 23.7187731347365
15.434226865263504 23.5533194042095 18.1197731347365
14.037226865263499 10.5156805957905 5.7697731347365
18.9677731347365 15.365226865263502 31.642865673682508
23.9937731347365 9.979226865263499 14.465226865263496
2.5912268652635007 31.535773134736502 19.0097731347365
26.2497731347365 20.962226865263496 23.526226865263503
1.3037731347365007 19.8232268652635 22.205226865263505
11.645226865263503 27.854226865263506 19.7187731347365
21.0627731347365 8.167226865263501 12.167226865263501
6.551226865263494 29.0687731347365 31.8217731347365
18.171319404209502 20.891226865263498 25.392226865263503
29.1097731347365 24.8226805957905 28.7207731347365
22.1847731347365 26.0677731347365 20.9467731347365
1.5942268652635008 27.4017731347365 28.3197731347365
25.1873194042095 20.476226865263506 8.4397731347365
16.104226865263506 22.8743194042095 11.502226865263502
21.3022268652635 26.738319404209502 9.084226865263496
24.934773134736503 23.3517731347365 5.8587731347365
1.927319404209502 19.9117731347365 21.7248656736825
4.026226865263503 15.9547731347365 27.4507731347365
9.7607731347365 0.45222686526350486 10.6607731347365
31.2117731347365 8.3807731347365 22.599773134736502
16.002226865263502 18.087226865263496 24.0137731347365
12.355680595790503 27.879226865263497 30.7083194042095
5.120226865263497 3.690773134736501 3.5716805957904967
22.6832268652635 26.934773134736503 26.0687731347365
3.648226865263503 8.553226865263504 31.4067731347365
22.6097731347365 12.5717731347365 18.5947731347365
14.9797731347365 7.3426805957904975 5.556680595790496
10.7627731347365 23.521226865263493 26.3397731347365
11.806226865263504 27.1693194042095 8.0122268652635
16.4692268652635 6.871226865263502 31.2617731347365
14.110773134736501 16.5792268652635 3.7542268652634974
2.4062268652634984 14.5013194042095 21.8857731347365
11.013226865263498 28.622773134736498 20.0713194042095
17.237680595790508 4.3042268652634945 12.336226865263498
27.189773134736498 14.7047731347365 22.1682268652635
27.488226865263506 8.911226865263501 5.6057731347365
29.0897731347365 30.923226865263494 7.253319404209503
29.369226865263506 29.848226865263506 5.922226865263504
19.022226865263498 24.3903194042095 6.1222268652634995
20.0707731347365 10.244680595790499 26.140226865263493
2.238226865263499 20.1742268652635 8.302773134736501
23.5462268652635 29.4177731347365 30.107226865263506
31.660773134736502 6.537226865263499 29.614226865263497
2.3507731347364995 20.0027731347365 0.1366805957904944
4.3182268652635045 15.163226865263503 29.583680595790497
10.245680595790503 3.8142268652634996 7.831773134736501
18.7227731347365 11.7772268652635 18.1327731347365
15.8207731347365 12.034226865263498 22.266680595790504
9.928226865263504 2.4597731347364995 10.865226865263502
23.5343194042095 10.339680595790497 8.5097731347365
26.2433194042095 13.7977731347365 23.3187731347365
28.8777731347365 30.206226865263496 27.496226865263502
4.2446805957904985 7.1372268652635 9.752680595790494
19.6077731347365 18.188226865263495 14.196226865263505
15.0792268652635 9.255226865263502 8.223680595790498
15.0672268652635 0.3642268652634968 30.253773134736498
0.752226865263502 0.6616805957905001 11.603680595790493
1.2747731347365008 4.5427731347365 5.853226865263501
13.555134326317514 22.855773134736502 1.5866805957904973
19.499226865263502 19.0773194042095 14.246226865263502
7.472319404209504 25.169773134736502 21.688226865263495
30.9976805957905 25.2893194042095 12.2477731347365
5.9512268652635 30.0167731347365 4.9602268652635
16.4752268652635 21.4743194042095 31.1263194042095
31.6767731347365 8.990226865263502 29.0137731347365
16.213319404209503 7.940226865263504 9.4127731347365
21.9657731347365 10.3447731347365 8.5272268652635
1.4477731347365008 5.406226865263498 31.2157731347365
0.4962268652635018 18.858773134736502 6.879226865263497
8.6887731347365 16.4027731347365 23.3457731347365
0.928226865263504 0.08722686526349577 7.818680595790497
30.654226865263503 22.7237731347365 3.1026805957905026
0.8552268652634964 0.2882268652635034 26.187773134736503
22.049680595790505 20.6837731347365 10.125680595790499
3.4102268652635033 27.569226865263495 18.085680595790507
19.6832268652635 12.613773134736501 28.1683194042095
4.7347731347365 31.9057731347365 29.824226865263505
31.2567731347365 10.2667731347365 27.3387731347365
7.3112268652634995 6.130319404209498 30.9473194042095
2.6952268652635 16.8297731347365 3.7802268652635007
3.0807731347365 10.045226865263501 5.773680595790495
4.275680595790504 22.000773134736498 25.3558656736825
11.391226865263498 21.0413194042095 22.022226865263498
11.803226865263504 20.0077731347365 12.2333194042095
5.459226865263496 6.601226865263499 22.026319404209502
30.7583194042095 1.8352268652635004 3.898680595790495
4.927226865263499 29.5607731347365 13.9176805957905
27.5107731347365 26.37768059579051 31.9787731347365
26.9877731347365 0.6322268652634975 15.248226865263497
20.3412268652635 23.1927731347365 26.7837731347365
17.5882268652635 15.744319404209502 20.2967731347365
10.7027731347365 18.1077731347365 0.4706805957904976
5.062773134736501 2.9492268652635047 14.382226865263497
17.845226865263506 14.004226865263497 27.9122268652635
26.0107731347365 9.9448656736825 2.7442268652634993
16.735226865263506 7.1677731347365 19.7006805957905
8.8046805957905 24.8666805957905 26.8537731347365
4.9627731347365 4.2973194042094995 27.8337731347365
30.242773134736503 11.3262268652635 14.965680595790502
26.794226865263504 5.689680595790506 22.3917731347365
28.473226865263506 5.177680595790505 29.5987731347365
9.0367731347365 24.5693194042095 17.336226865263505
18.837226865263496 18.5167731347365 24.699226865263505
4.8822268652634975 27.9447731347365 15.034226865263498
12.5182268652635 31.6307731347365 25.9357731347365
2.322773134736501 10.325773134736501 23.9497731347365
13.764773134736501 28.177773134736498 9.607226865263499
25.430773134736498 10.2577731347365 25.8457731347365
0.3192268652634951 4.343226865263496 13.4977731347365
27.529319404209502 31.9053194042095 1.6476805957905043
30.8073194042095 18.0282268652635 27.884226865263493
6.471226865263496 13.2517731347365 8.348226865263499
10.2657731347365 27.3733194042095 31.361773134736502
6.319226865263495 31.3593194042095 8.937226865263504
3.108680595790503 3.4486805957905062 1.1506805957905044
3.136773134736501 20.1987731347365 21.5977731347365
31.0793194042095 14.525226865263498 3.412680595790505
1.5812268652634955 14.591773134736501 14.614226865263497
27.122226865263507 12.3153194042095 25.8507731347365
0.7587731347365008 19.854680595790498 8.012319404209503
2.380226865263502 25.5403194042095 26.052319404209502
20.348226865263506 23.625226865263507 28.611773134736502
12.081319404209498 31.6657731347365 26.6307731347365
7.08386567368251 18.0728656736825 23.852226865263496
17.0937731347365 13.101226865263499 28.160226865263503
17.1177731347365 11.782226865263503 12.583319404209501
6.6342268652635 9.7192268652635 17.934226865263504
1.249226865263502 3.0752268652634953 4.892226865263503
31.6622268652635 29.331319404209502 29.413773134736502
10.9332268652635 21.9617731347365 22.1562268652635
28.2127731347365 23.3907731347365 14.028680595790505
20.3197731347365 17.170226865263494 5.2682268652635
24.3167731347365 18.7962268652635 7.602226865263496
5.834226865263496 20.9277731347365 30.593226865263496
15.6097731347365 28.885226865263498 3.4307731347364996
6.2072268652635 20.9757731347365 27.9902268652635
28.179226865263495 20.1772268652635 27.8243194042095
3.0122268652635 21.8207731347365 1.0237731347364996
11.919226865263504 25.9607731347365 11.4722268652635
11.9907731347365 18.1997731347365 30.4487731347365
20.801226865263494 27.7077731347365 16.600680595790507
13.0762268652635 22.6587731347365 14.087773134736501
5.6487731347365 11.3907731347365 25.055319404209502
15.353226865263501 25.158226865263494 0.34177313473650095
23.5213194042095 26.113773134736498 14.6057731347365
1.7132268652635005 23.248680595790503 24.3577731347365
19.077226865263505 12.2617731347365 21.519226865263498
3.4406805957904965 4.231226865263501 21.220226865263506
31.7767731347365 27.614773134736502 1.8586805957905028
30.4217731347365 8.4287731347365 4.515680595790499
11.2072268652635 3.4666805957904927 21.066226865263495
15.7107731347365 26.4523194042095 31.5607731347365
12.1372268652635 0.1781343263175046 15.224680595790502
27.9757731347365 26.8217731347365 18.5762268652635
31.4877731347365 27.4617731347365 14.604226865263499
8.020226865263503 14.5017731347365 30.9637731347365
12.526319404209499 24.0467731347365 14.3262268652635
16.8347731347365 3.6097731347365 3.7362268652634967
30.5863194042095 18.5807731347365 17.5697731347365
26.2997731347365 25.4487731347365 19.4903194042095
8.6676805957905 3.3297731347365005 30.5777731347365
16.8757731347365 6.806226865263504 17.010226865263498
19.1207731347365 9.443226865263505 12.6162268652635
30.3563194042095 6.705226865263505 9.4967731347365
3.2102268652635004 9.8153194042095 23.720226865263506
5.8987731347365 17.4452268652635 8.391226865263498
0.3906805957904993 11.703773134736501 22.07558805684451
2.306773134736501 15.333319404209501 4.3027731347364995
6.641680595790504 12.7077731347365 8.049680595790505
0.35222686526349634 11.2776805957905 10.589226865263498
4.508773134736501 26.0762268652635 5.982773134736501
15.003319404209503 23.6677731347365 19.4673194042095
27.6627731347365 9.246226865263502 28.8643194042095
7.638226865263498 19.9083194042095 30.7147731347365
31.262226865263493 24.7547731347365 8.5657731347365
15.7057731347365 17.349773134736502 24.4687731347365
14.735773134736501 30.9453194042095 11.973319404209501
11.1192268652635 2.151226865263503 10.4517731347365
3.9527731347365 24.3786805957905 13.9047731347365
23.4163194042095 14.2592268652635 17.283226865263494
7.0762268652635 26.834319404209502 20.983226865263497
11.199226865263505 28.5457731347365 18.397226865263498
24.375226865263507 21.4117731347365 28.756226865263493
7.604226865263499 0.928226865263504 28.5667731347365
24.9267731347365 8.237680595790493 18.9007731347365
18.2707731347365 28.3583194042095 25.5987731347365
9.5122268652635 22.008226865263502 21.706226865263496
28.495773134736503 18.3367731347365 18.093319404209502
25.965319404209502 2.9416805957905012 20.9407731347365
21.4147731347365 8.815680595790496 8.522226865263498
1.4256805957904959 13.0062268652635 15.9037731347365
1.1947731347365007 17.4937731347365 26.625773134736498
8.2827731347365 11.246226865263502 23.7872268652635
16.792226865263494 26.5893194042095 11.923226865263501
16.1617731347365 26.369773134736498 30.9703194042095
2.4662268652635007 10.3472268652635 16.3442268652635
25.7313194042095 23.194226865263495 9.962773134736501
15.150226865263498 4.114773134736501 6.4298656736824995
16.0947731347365 25.0897731347365 12.6892268652635
21.6652268652635 9.5397731347365 10.610680595790498
6.186680595790506 4.691680595790501 3.908226865263501
11.605226865263496 29.2067731347365 8.0537731347365
4.729773134736501 26.4707731347365 3.3617731347365005
22.6152268652635 28.6182268652635 30.5987731347365
20.983226865263497 17.7027731347365 20.499226865263502
2.6852268652634947 20.1437731347365 1.367226865263497
13.356226865263501 18.0522268652635 17.2012268652635
27.6047731347365 5.6867731347365 8.420226865263501
11.626226865263497 21.678226865263504 28.123226865263497
25.888226865263498 10.793226865263499 1.9462268652635046
3.431226865263504 23.314680595790506 0.7128656736825008
0.4386805957905011 25.369773134736498 9.9167731347365
24.706226865263496 13.010226865263498 29.1712268652635
27.9152268652635 20.6367731347365 9.333226865263498
15.658773134736501 4.218680595790502 2.4842268652635013
31.7402268652635 9.377226865263502 12.421226865263499
7.216773134736501 30.1303194042095 32.0413194042095
19.088680595790507 22.5013194042095 8.216680595790493
7.6767731347365 20.6293194042095 18.4086805957905
14.8047731347365 0.06868059579049657 21.4633194042095
12.110226865263499 11.8382268652635 1.299226865263499
3.5382268652635034 24.3987731347365 19.907319404209503
16.011226865263502 14.6297731347365 28.241773134736498
11.622680595790499 13.5957731347365 18.0767731347365
19.1627731347365 19.922680595790496 28.5246805957905
5.816680595790501 0.14722686526349804 7.714680595790497
31.5453194042095 30.235226865263506 7.219773134736501
27.742773134736503 14.302319404209502 21.952226865263505
19.045226865263494 14.446680595790497 27.353134326317516
8.660680595790495 25.550226865263504 17.022226865263498
29.585865673682505 30.927773134736498 28.1706805957905
4.2657731347365 4.4617731347365 14.7192268652635
0.9222268652635037 6.398680595790495 18.3652268652635
16.871226865263502 14.3857731347365 21.8727731347365
5.401680595790495 7.599226865263496 30.4997731347365
25.1473194042095 12.9867731347365 5.8857731347365
15.5987731347365 16.4477731347365 25.9413194042095
11.9587731347365 30.717226865263505 15.946680595790497
31.268865673682498 27.0432268652635 24.8237731347365
6.7367731347365005 2.711226865263498 3.5486805957905005
14.3382268652635 22.041411943155495 15.287134326317513
1.7362268652634967 5.391680595790504 19.059226865263504
16.342680595790497 10.6252268652635 10.494773134736501
3.2996805957905053 22.2132268652635 6.621226865263502
8.1657731347365 16.645226865263503 25.3513194042095
21.9743194042095 21.3193194042095 0.008680595790494294
31.9572268652635 0.5846805957905019 12.463680595790493
12.6007731347365 18.3537731347365 29.5987731347365
16.02068059579051 25.5803194042095 10.3232268652635
29.929226865263495 22.4667731347365 22.1707731347365
21.887226865263493 27.4187731347365 4.912773134736501
12.674773134736501 19.4182268652635 12.3467731347365
12.037226865263499 12.9482268652635 20.687680595790496
10.289226865263501 3.3237731347365003 14.191226865263495
20.7967731347365 8.587773134736501 9.019226865263498
10.3077731347365 19.2017731347365 3.066226865263495
2.5916805957904927 29.800773134736502 2.3552268652634964
16.7113194042095 4.187226865263504 16.632226865263497
24.302773134736498 4.5062268652635 16.2547731347365
12.498226865263497 31.0257731347365 2.3807731347365007
29.422773134736502 5.7827731347365 14.8277731347365
29.1143194042095 16.369226865263506 11.526773134736501
21.7893194042095 1.3216805957904967 25.7837731347365
16.958226865263505 2.572773134736501 12.6447731347365
8.9197731347365 12.716680595790493 4.3182268652635045
25.1093194042095 27.1857731347365 24.483773134736502
8.8932268652635 11.4387731347365 9.459226865263496
18.224773134736502 16.7207731347365 30.691226865263495
21.6627731347365 2.0552268652634993 15.4257731347365
10.2277731347365 0.008680595790494294 10.104226865263499
8.879680595790504 1.306226865263504 21.7843194042095
12.706226865263496 29.0577731347365 25.9413194042095
17.6817731347365 24.610319404209502 5.9077731347365
22.9487731347365 2.175226865263504 27.6316805957905
11.029773134736502 26.200226865263495 8.601226865263499
23.9077731347365 25.9602268652635 13.791226865263503
7.379226865263497 28.8743194042095 13.467226865263498
16.8292268652635 25.6247731347365 31.7727731347365
3.411226865263501 17.2817731347365 2.8562268652635012
12.0507731347365 16.5702268652635 2.245226865263497
1.6136805957904983 0.7442268652634993 19.425226865263504
5.450226865263495 19.369226865263506 13.803226865263504
7.441773134736501 23.1093194042095 9.9117731347365
12.885226865263498 31.3887731347365 2.1857731347365004
7.597226865263501 8.036226865263501 20.514226865263502
9.572226865263495 26.430773134736498 26.244319404209502
24.1567731347365 8.5737731347365 10.123226865263497
16.1227731347365 14.495226865263497 27.6307731347365
19.192773134736502 27.8112268652635 24.000226865263507
23.761226865263502 18.4297731347365 2.2506805957904987
3.7622268652635 24.882226865263497 18.9037731347365
17.5647731347365 17.419680595790496 12.0287731347365
15.8117731347365 0.8272268652635049 9.9797731347365
29.4187731347365 17.3087731347365 0.7287731347364996
7.094226865263501 9.411226865263501 12.5007731347365
8.302680595790505 3.7192268652635008 5.2712268652635
