29.9507731347365 1.4307731347364996 3.982773134736501
15.1432268652635 18.575226865263495 13.008226865263502
23.1097731347365 10.4452268652635 14.4343194042095
18.708226865263505 17.195773134736502 22.8197731347365
15.6927731347365 0.6866805957905058 2.988226865263499
3.7116805957904973 10.255226865263502 28.1457731347365
30.9647731347365 16.2006805957905 14.151226865263503
23.815226865263504 15.510865673682503 9.901865673682508
2.666134326317504 13.046226865263499 19.861226865263497
8.200773134736501 27.6983194042095 23.480226865263496
28.878319404209503 31.9087731347365 20.2377731347365
5.0587731347365 0.7772268652635006 15.377680595790494
8.587680595790502 5.337680595790502 29.5403194042095
6.376226865263497 31.9477731347365 12.5302268652635
24.361226865263497 6.9972268652634995 25.9692268652635
28.0327731347365 0.4063194042095013 20.4083194042095
3.9452268652635 21.239773134736502 7.126773134736501
13.0487731347365 31.386226865263502 16.7457731347365
23.3407731347365 27.088680595790507 7.5732268652635
25.6613194042095 1.8102268652634947 5.7682268652635
19.0857731347365 18.881226865263493 24.742226865263497
6.434773134736501 19.6143194042095 11.3137731347365
30.270226865263503 9.108226865263497 7.052226865263499
4.714680595790497 20.749226865263502 0.435680595790501
3.0712268652635046 27.5547731347365 26.386226865263502
9.159226865263498 29.2007731347365 2.588773134736501
10.1187731347365 20.6592268652635 9.5612268652635
20.0267731347365 22.550226865263504 25.2667731347365
0.8102268652634947 12.420226865263501 21.625773134736498
26.869226865263506 11.976680595790498 24.2812268652635
19.9697731347365 17.9647731347365 4.566226865263495
10.059226865263504 10.542226865263501 5.227226865263496
29.9812268652635 21.8202268652635 25.6293194042095
11.3367731347365 26.7327731347365 19.5327731347365
27.9143194042095 31.2577731347365 5.779226865263503
5.852226865263496 13.8997731347365 6.876773134736501
17.6087731347365 28.8167731347365 15.3887731347365
16.467226865263505 25.7297731347365 7.820319404209503
31.4733194042095 16.5547731347365 4.133226865263502
6.127226865263502 23.724773134736502 11.029226865263503
10.1977731347365 5.173226865263501 3.6632268652635034
19.2423194042095 15.7767731347365 3.5062268652635
13.3932268652635 18.9607731347365 3.3937731347365006
12.5062268652635 3.8412268652635007 8.9302268652635
18.932226865263495 4.3722268652634995 19.5943194042095
11.735226865263499 17.7297731347365 24.7677731347365
25.270319404209502 0.40322686526349827 27.985319404209502
24.866773134736498 2.293773134736501 27.602773134736502
8.834773134736501 21.860226865263506 20.916226865263503
24.645319404209502 22.139319404209502 6.0792268652635
6.276680595790495 21.872226865263507 27.3133194042095
9.372773134736502 1.4586805957904971 8.291226865263503
12.7012268652635 7.0092268652635 17.035773134736502
25.194226865263495 28.608773134736502 18.605226865263496
26.8733194042095 24.4173194042095 31.861680595790503
0.2632268652634977 6.431226865263504 28.556773134736503
25.9752268652635 31.8683194042095 25.5137731347365
24.6343194042095 21.3997731347365 11.4882268652635
7.7797731347365 26.6127731347365 23.6717731347365
30.9193194042095 1.3642268652634968 22.8567731347365
5.461226865263498 16.6982268652635 24.3437731347365
9.145226865263503 24.7217731347365 6.8057731347365
1.1682268652634988 23.9217731347365 19.0197731347365
11.3417731347365 31.3487731347365 15.748226865263497
13.9967731347365 7.690226865263504 7.5327731347365
19.7847731347365 19.5762268652635 0.4466805957904967
30.727226865263496 32.12822686526351 2.9737731347365006
29.186773134736498 14.1097731347365 7.861226865263497
6.879773134736499 15.335319404209503 3.830226865263505
30.924319404209502 2.5762268652635 18.8897731347365
21.8093194042095 6.562226865263504 29.093226865263496
18.0133194042095 10.429226865263495 3.300226865263504
17.5987731347365 6.623226865263497 16.6857731347365
5.336134326317506 26.2287731347365 14.630226865263502
14.218226865263496 14.2397731347365 4.455680595790497
9.1447731347365 7.1322268652634975 16.6802268652635
26.239773134736502 27.520226865263503 5.562773134736501
10.3906805957905 11.662226865263499 19.845226865263506
20.0462268652635 17.212226865263496 9.6952268652635
25.7907731347365 1.2857731347365 5.473773134736501
20.7567731347365 17.0257731347365 11.7502268652635
28.897226865263498 26.480773134736502 4.0062268652635
27.5947731347365 10.7517731347365 32.1707731347365
1.0582268652634994 20.419773134736502 20.4332268652635
8.470226865263498 15.346226865263496 4.334680595790502
12.634319404209503 7.918319404209502 27.0317731347365
10.426226865263494 22.0437731347365 8.0887731347365
8.547226865263504 14.5927731347365 2.9492268652635047
9.3412268652635 29.0443194042095 3.5942268652635008
17.203319404209502 18.032226865263503 28.247226865263507
17.0522268652635 30.9657731347365 29.504226865263497
28.6373194042095 16.3517731347365 10.6527731347365
24.7723194042095 18.5833194042095 27.562226865263504
11.825226865263495 22.2782268652635 29.7222268652635
25.474773134736502 20.2257731347365 12.8627731347365
17.905226865263494 3.3842268652635 14.6772268652635
28.5787731347365 31.863226865263506 22.3903194042095
18.6377731347365 8.324680595790497 5.913226865263503
8.9572268652635 30.1742268652635 2.516226865263498
24.9297731347365 6.481226865263501 15.800226865263504
23.9513194042095 19.8507731347365 9.8007731347365
23.7072268652635 6.5387731347365 26.2637731347365
23.891226865263498 24.494773134736498 14.197226865263495
2.690773134736501 11.636226865263502 21.339226865263505
6.055226865263499 20.985226865263506 26.2926805957905
17.6467731347365 12.4542268652635 16.860319404209502
18.2427731347365 2.978226865263501 14.2397731347365
3.5012268652634972 28.2432268652635 21.9733194042095
26.1862268652635 24.735226865263506 0.49022686526350157
11.618319404209497 26.4117731347365 12.430319404209502
13.040226865263499 15.2887731347365 22.400226865263498
10.971226865263496 23.3247731347365 21.575226865263495
0.9802268652634964 1.0747731347364997 13.899319404209503
29.6653194042095 19.0097731347365 8.315226865263504
12.272134326317513 32.0087731347365 22.568226865263505
2.482226865263499 19.488226865263506 14.812226865263504
25.3977731347365 23.6577731347365 21.6927731347365
19.0807731347365 3.1566805957905046 4.128680595790499
23.9797731347365 24.7877731347365 14.5377731347365
29.5747731347365 2.2757731347365002 27.599226865263496
0.4122268652634986 15.480226865263496 10.1203194042095
11.589134326317506 4.431134326317505 25.70613432631751
29.6647731347365 1.9392268652634996 6.1952268652635
11.1737731347365 8.136226865263502 19.6177731347365
9.156680595790505 17.4347731347365 10.973226865263499
3.5227731347365 2.767773134736501 21.262226865263493
12.5767731347365 17.5697731347365 28.3063194042095
23.4092268652635 5.388226865263498 10.272226865263498
24.5427731347365 7.1322268652634975 2.239680595790503
1.9417731347365006 23.1903194042095 0.6632268652635034
9.578773134736501 22.1843194042095 19.581226865263496
4.705226865263505 4.638226865263498 13.990226865263502
1.6842268652635042 31.542226865263494 24.7222268652635
30.473226865263506 5.895226865263503 8.978226865263501
29.9662268652635 23.1857731347365 15.726226865263499
5.604773134736501 19.0623194042095 9.535680595790495
22.051226865263494 18.877134326317503 7.198134326317515
15.2712268652635 3.0582268652634994 31.5867731347365
11.428226865263504 25.7653194042095 16.1917731347365
14.4422268652635 1.3697731347364996 21.929226865263495
20.863226865263506 2.0372268652634986 6.3822268652634975
20.3597731347365 17.1267731347365 10.5182268652635
26.0912268652635 0.06668059579050123 26.5637731347365
11.5517731347365 27.6617731347365 19.124226865263502
9.311773134736502 13.5717731347365 8.8757731347365
30.5453194042095 5.479226865263499 13.2077731347365
31.331226865263496 0.280773134736501 25.1987731347365
20.9697731347365 6.779226865263503 28.482226865263506
0.44122686526349497 30.9482268652635 17.491226865263506
32.1607731347365 20.9033194042095 11.898226865263503
25.5127731347365 6.769680595790504 22.113226865263506
23.347680595790507 27.6077731347365 12.085680595790492
24.504226865263497 3.935680595790501 9.3557731347365
20.658226865263494 31.8322268652635 1.6987731347365003
25.306680595790496 9.6233194042095 14.155773134736501
25.4092268652635 29.2513194042095 12.517773134736501
0.2446805957904985 29.498773134736503 6.5242268652635005
17.128226865263507 16.4152268652635 5.851773134736501
15.4512268652635 16.9187731347365 13.654680595790495
4.8537731347365 0.10077313473649951 15.949226865263505
27.9937731347365 1.316226865263495 13.3932268652635
0.4776805957905026 11.165680595790505 25.456226865263496
19.491226865263506 21.2637731347365 15.737226865263501
2.0386805957904954 4.9947731347365 5.058226865263499
11.171773134736501 1.6362268652635024 31.045226865263494
6.584226865263496 12.0677731347365 23.4542268652635
7.6697731347365 20.598226865263506 25.574226865263505
22.5907731347365 6.0847731347364995 6.815226865263504
17.4677731347365 11.0117731347365 3.2157731347364997
16.4353194042095 13.784680595790505 29.9527731347365
8.927773134736501 30.0517731347365 4.1616805957905
3.8026805957905054 22.8483194042095 24.6862268652635
11.918773134736501 0.8552268652634964 4.856226865263501
12.891226865263498 15.3243194042095 20.307226865263495
11.821680595790497 9.1342268652635 5.0317731347365005
12.583226865263498 29.721226865263496 24.981680595790507
28.2637731347365 24.108226865263497 20.339226865263505
27.0552268652635 31.4083194042095 12.059226865263504
3.7912268652635035 31.2377731347365 24.2342268652635
2.8497731347365 21.68213432631751 14.220319404209501
1.7662268652634978 11.806226865263504 1.3202268652634999
16.188226865263495 0.8766805957905035 3.312773134736501
4.137319404209503 17.6447731347365 24.805319404209502
7.7467731347365 7.1282268652635 15.719319404209504
20.096226865263496 5.119226865263499 22.107226865263506
6.367226865263497 23.3697731347365 18.616226865263506
8.049226865263499 0.14122686526349781 9.979680595790498
11.6607731347365 21.022226865263498 2.953773134736501
14.7137731347365 10.4727731347365 20.292226865263494
3.9262268652634944 31.702226865263505 19.761226865263502
4.655226865263501 28.044773134736502 20.6152268652635
4.2012268652635 18.4537731347365 4.2106805957904925
9.2857731347365 5.0477731347365005 30.748773134736503
0.7042268652635002 9.0797731347365 17.8157731347365
10.354226865263499 7.883226865263502 19.629680595790504
27.1707731347365 15.217226865263498 4.418773134736501
7.470226865263498 29.2617731347365 19.822226865263495
18.014319404209502 12.632226865263497 30.8187731347365
7.0092268652635 29.6967731347365 2.3187731347364995
17.4413194042095 9.508134326317503 12.5567731347365
27.024226865263493 15.530773134736501 28.221226865263496
18.4067731347365 1.3877731347365003 20.4267731347365
19.8993194042095 8.700773134736501 1.3711343263175024
28.2863194042095 10.4197731347365 2.2657731347365004
6.652226865263501 3.7106805957904925 21.081226865263496
5.508773134736501 15.950773134736501 17.3037731347365
1.6507731347365002 26.8687731347365 1.401680595790495
11.139226865263502 25.803773134736502 16.916773134736502
25.565865673682495 9.1587731347365 1.0972268652635009
13.707680595790492 18.561865673682505 28.9093194042095
30.260226865263498 0.5272268652635006 4.315226865263504
27.405226865263494 8.621226865263502 13.221226865263496
4.888226865263498 14.860226865263499 7.915226865263499
22.4327731347365 19.8247731347365 19.6263194042095
5.223773134736501 3.706680595790502 1.6626805957905049
18.8737731347365 30.1357731347365 21.480773134736502
15.208226865263498 19.8793194042095 11.3187731347365
0.3562268652635012 11.297680595790496 21.5197731347365
19.3767731347365 12.514773134736501 8.835680595790492
29.0522268652635 22.6862268652635 14.860319404209502
18.596226865263496 10.339226865263498 13.243680595790494
9.619773134736501 19.2192268652635 24.983773134736502
12.6582268652635 31.7753194042095 0.942680595790506
3.4887731347364994 25.3437731347365 26.809773134736503
6.1867731347365 1.685680595790501 11.992680595790503
31.7273194042095 6.3202268652635 19.9987731347365
13.9272268652635 6.395680595790495 2.9062268652634984
2.928226865263504 8.6437731347365 17.3097731347365
25.6982268652635 6.663226865263503 6.7497731347365
19.9387731347365 2.3372268652634958 4.774773134736501
3.5617731347365 8.663226865263503 15.3932268652635
18.4287731347365 16.6447731347365 23.7103194042095
11.959226865263496 8.1267731347365 24.0727731347365
7.300226865263504 26.7932268652635 23.1263194042095
11.0027731347365 2.5956805957904976 27.5607731347365
13.8797731347365 3.023226865263503 13.880226865263502
20.4632268652635 10.803226865263504 6.5682268652635045
11.424773134736501 26.3112268652635 18.5497731347365
20.27968059579051 1.7486805957905034 5.283773134736501
18.614226865263497 14.8187731347365 13.3487731347365
1.5927731347365004 5.741226865263499 17.054226865263495
2.2716805957904995 6.854773134736501 16.4277731347365
23.701865673682505 30.2902268652635 3.1282268652634997
31.7257731347365 19.150226865263498 31.9077731347365
10.7192268652635 1.7207731347365005 27.7783194042095
24.916773134736502 10.6757731347365 20.240680595790508
27.5497731347365 17.5792268652635 22.505226865263502
29.0953194042095 31.7653194042095 21.0377731347365
0.7822268652635032 28.6273194042095 6.461226865263498
28.733226865263497 26.751773134736503 3.5372268652634986
31.700226865263495 30.0077731347365 15.299226865263499
6.518134326317508 16.445773134736502 16.9663194042095
9.6282268652635 22.110680595790498 13.775226865263498
14.8722268652635 9.6667731347365 31.4517731347365
9.7607731347365 17.179226865263495 12.073680595790506
28.8857731347365 13.1282268652635 15.531226865263498
4.5837731347365 16.79186567368251 2.6762268652634944
12.5197731347365 18.047226865263504 8.626226865263497
3.7093194042094986 27.7252268652635 28.173226865263494
31.642319404209502 7.699226865263505 20.292226865263494
3.2102268652635004 5.395773134736499 0.023226865263502816
17.960680595790507 23.588680595790507 21.2012268652635
31.4662268652635 2.654226865263503 8.4287731347365
5.4432268652635045 14.2977731347365 7.659680595790505
9.4527731347365 11.3007731347365 20.860226865263506
8.5122268652635 15.719773134736501 19.7727731347365
15.5877731347365 12.610773134736501 17.191226865263495
22.255226865263502 20.3687731347365 19.949226865263505
19.7607731347365 11.854226865263499 30.9757731347365
17.898226865263503 13.8932268652635 21.2872268652635
22.4427731347365 10.7087731347365 15.341680595790493
14.280773134736501 31.7132268652635 28.428226865263504
19.233226865263497 19.474773134736502 11.037226865263499
12.3553194042095 22.5353194042095 22.9163194042095
24.1653194042095 23.980226865263496 19.8987731347365
17.366226865263506 30.5907731347365 11.563680595790501
10.8827731347365 14.2837731347365 30.745680595790503
31.3553194042095 7.263226865263498 27.8273194042095
19.8127731347365 22.741226865263506 24.5727731347365
19.7102268652635 16.5017731347365 3.8347731347364995
12.638226865263498 12.043773134736501 11.973226865263499
4.716226865263501 2.496226865263502 28.919226865263504
25.7897731347365 27.791773134736502 24.3657731347365
23.2373194042095 30.2557731347365 4.508226865263502
22.644226865263498 28.0827731347365 29.741773134736498
19.3747731347365 21.640226865263493 16.9847731347365
6.720226865263498 27.5083194042095 8.851680595790498
25.541226865263503 10.1757731347365 9.0242268652635
12.9977731347365 14.900319404209501 1.279226865263503
16.378226865263507 21.2517731347365 31.5432268652635
23.1977731347365 18.9867731347365 7.870226865263497
7.1982268652635 14.7412268652635 12.040226865263499
24.0727731347365 19.1832268652635 28.441226865263495
31.9003194042095 15.715226865263496 10.3537731347365
28.5363194042095 5.009680595790499 5.781226865263498
15.0337731347365 30.0127731347365 21.6547731347365
22.642226865263503 13.514773134736501 2.7002268652634953
26.361773134736502 20.4263194042095 7.2337731347365
23.8817731347365 15.473226865263499 16.4057731347365
8.0217731347365 14.892226865263503 3.557680595790501
11.010680595790504 18.739226865263497 25.087226865263496
3.0552268652634993 24.2407731347365 9.6037731347365
26.2667731347365 6.4627731347365 1.9722268652635009
32.1712268652635 10.520773134736501 9.837226865263496
1.7477731347364998 11.7442268652635 4.844773134736501
5.0297731347365 0.7272268652634963 3.2072268652635003
14.014680595790495 26.432226865263495 4.794680595790496
7.360773134736501 4.6157731347365 7.6616805957905
13.924773134736501 0.9256805957904959 21.4602268652635
12.341680595790493 31.4187731347365 16.251226865263497
29.739226865263497 18.6892268652635 17.6802268652635
25.3967731347365 25.5287731347365 1.6302268652635021
29.075319404209502 22.0617731347365 26.3857731347365
3.6872268652635043 23.4307731347365 10.5396805957905
24.800773134736502 24.171319404209502 27.1503194042095
20.8207731347365 2.690773134736501 17.291226865263503
22.0317731347365 22.7997731347365 29.0913194042095
0.6167731347364995 14.052773134736501 26.974773134736502
23.3667731347365 8.7897731347365 30.3613194042095
18.1742268652635 27.6263194042095 26.8467731347365
17.5857731347365 7.391226865263498 6.8307731347365
9.8797731347365 22.169226865263504 20.093319404209502
10.026773134736501 12.302773134736501 5.657226865263503
11.078226865263495 20.6977731347365 30.4907731347365
7.630773134736501 5.2562268652635 30.398319404209502
13.866773134736501 13.938226865263495 1.1932268652635045
26.643226865263493 15.1387731347365 31.727226865263496
15.2667731347365 17.0757731347365 2.242226865263497
9.8867731347365 2.1666805957904955 15.2652268652635
4.600680595790493 13.240226865263502 27.7847731347365
3.282226865263503 31.1497731347365 10.9707731347365
5.2682268652635 29.2717731347365 19.510226865263498
31.2043194042095 10.58113432631751 10.9707731347365
16.4467731347365 24.7842268652635 7.6676805957905
29.7812268652635 22.5697731347365 14.831773134736501
23.325319404209502 22.1003194042095 31.5383194042095
28.878226865263507 8.1957731347365 11.5062268652635
2.5082268652635022 8.776773134736501 16.1197731347365
21.489226865263497 23.5017731347365 30.6477731347365
5.5092268652635 16.3052268652635 25.0427731347365
11.1647731347365 16.714226865263505 14.924773134736501
23.1307731347365 29.9643194042095 28.169226865263504
12.8387731347365 14.3307731347365 31.621226865263502
15.574226865263505 15.9277731347365 1.6532268652634983
30.2297731347365 4.0797731347365005 18.4007731347365
25.0907731347365 30.2437731347365 16.153680595790505
14.4392268652635 20.407226865263503 17.7007731347365
4.601226865263499 23.416773134736502 10.5727731347365
30.122319404209502 13.6737731347365 15.6007731347365
30.8857731347365 24.138226865263498 6.6982268652635
9.754226865263497 18.4067731347365 12.0777731347365
8.048226865263501 30.0897731347365 31.184226865263504
26.867773134736503 1.3907731347365004 18.4387731347365
11.8397731347365 10.2017731347365 5.848680595790498
2.1282268652634997 21.202226865263505 11.014773134736501
5.373226865263497 1.4136805957904954 14.507226865263497
17.374680595790508 31.4032268652635 30.9067731347365
27.2987731347365 12.449226865263505 7.453226865263495
26.565226865263504 28.998773134736503 30.9047731347365
28.0563194042095 27.5957731347365 27.0847731347365
12.119680595790499 2.7412268652634992 3.9821343263175066
10.6187731347365 11.770226865263503 4.786319404209504
0.8732268652634971 13.556226865263504 1.3992268652635005
3.4812268652635012 0.841773134736501 3.9607731347365007
23.348226865263506 19.5367731347365 26.922773134736502
25.4967731347365 23.9152268652635 27.0137731347365
25.117773134736503 25.0533194042095 1.9832268652634966
29.3407731347365 26.298226865263494 5.1437731347365006
6.0656805957904965 28.0087731347365 7.0867731347365
10.571226865263505 25.354226865263506 29.950319404209502
10.2207731347365 19.3652268652635 25.252226865263502
26.078319404209502 5.727226865263496 2.211226865263498
9.0332268652635 24.1927731347365 26.938226865263495
21.991226865263506 30.6153194042095 3.6022268652634963
13.3267731347365 8.339226865263498 7.4092268652634985
27.111773134736502 30.670226865263494 30.500773134736498
21.0972268652635 7.983226865263497 1.3357731347365007
26.3047731347365 15.4277731347365 17.398226865263503
7.497680595790499 19.5717731347365 28.3202268652635
5.960134326317515 12.344680595790493 24.4147731347365
15.1677731347365 31.260226865263498 7.399773134736501
13.544226865263504 31.919226865263504 17.977226865263496
28.1802268652635 14.586226865263498 8.6067731347365
13.355680595790503 31.9062268652635 23.908226865263494
28.3883194042095 18.767226865263503 23.0702268652635
9.593226865263496 21.0927731347365 2.8042268652634945
19.920226865263494 14.339226865263498 15.6897731347365
8.3142268652635 32.1457731347365 31.5402268652635
5.5342268652634985 16.5277731347365 22.7207731347365
29.3623194042095 4.380773134736501 18.428226865263504
2.5387731347365 12.583680595790497 18.0307731347365
8.351226865263499 22.0882268652635 13.7507731347365
25.6977731347365 2.062773134736501 25.910773134736502
4.089680595790497 30.3957731347365 19.3867731347365
26.2127731347365 31.602773134736502 26.214226865263505
14.476226865263499 30.056773134736503 26.4242268652635
27.404319404209502 22.2327731347365 16.121319404209498
22.872226865263507 14.1407731347365 27.935226865263495
20.5006805957905 15.639680595790495 16.4177731347365
3.2587731347365008 19.4927731347365 15.6697731347365
17.2297731347365 12.6197731347365 31.015226865263493
24.2737731347365 25.0827731347365 15.410226865263503
27.3177731347365 19.9917731347365 0.3752268652634996
9.967226865263498 0.21868059579050225 15.272226865263498
28.036226865263494 30.5137731347365 21.2517731347365
31.315773134736503 9.8977731347365 10.906226865263498
32.1007731347365 12.177680595790505 25.425773134736502
17.300226865263504 31.9207731347365 29.8877731347365
24.9602268652635 9.931773134736499 15.7897731347365
7.8872268652635 17.739226865263497 31.369226865263506
2.3496805957905025 4.3107731347365 4.085773134736501
6.5273194042095035 18.067773134736502 16.253226865263507
21.3517731347365 17.7517731347365 13.0912268652635
20.5307731347365 19.769226865263498 6.0367731347364995
16.227773134736502 9.495773134736499 27.538226865263503
1.4806805957905027 21.1967731347365 21.2463194042095
25.9817731347365 14.9867731347365 21.9957731347365
15.7617731347365 10.5767731347365 21.6772268652635
11.3142268652635 26.8943194042095 31.113226865263506
16.0777731347365 26.809773134736503 16.980226865263496
22.095226865263506 27.7437731347365 29.553773134736502
7.905773134736501 29.364773134736502 29.207680595790507
24.5993194042095 28.4677731347365 23.526865673682508
1.5972268652635009 10.1707731347365 12.8587731347365
10.741773134736501 28.328226865263495 26.4437731347365
12.200773134736501 14.990226865263502 22.223226865263506
5.235773134736501 29.111773134736502 15.9167731347365
6.417226865263501 3.8026805957905054 7.1052268652634964
20.1623194042095 29.596319404209503 15.2477731347365
21.7203194042095 5.088773134736501 27.4467731347365
30.3797731347365 15.630226865263502 19.8137731347365
0.03522686526350327 11.3232268652635 1.0163194042095007
28.376773134736503 14.3962268652635 31.7727731347365
22.7707731347365 17.8337731347365 27.4617731347365
17.1387731347365 10.404226865263503 3.562773134736501
0.5867731347365002 9.490226865263502 24.878773134736498
27.7203194042095 10.898773134736501 0.6722268652635037
10.379680595790504 10.5197731347365 4.3703194042095
15.103226865263501 8.1802268652635 0.4036805957905045
2.089226865263498 8.592226865263498 21.9347731347365
14.165226865263499 6.482226865263499 17.0217731347365
27.489680595790503 29.480226865263496 30.7312268652635
20.247226865263507 17.6243194042095 4.790773134736501
28.4362268652635 8.411226865263501 22.509226865263493
17.5957731347365 7.544226865263504 16.7727731347365
6.4297731347365 9.7277731347365 6.892773134736501
15.4307731347365 5.665773134736501 23.4317731347365
22.689773134736498 22.982680595790498 31.431773134736503
31.655226865263494 20.828319404209502 12.7577731347365
7.3277731347365 24.7067731347365 19.8323194042095
15.9487731347365 17.3857731347365 12.517773134736501
21.701865673682505 10.120680595790503 24.620773134736503
7.163226865263503 27.5937731347365 23.5027731347365
19.5246805957905 18.9007731347365 10.631319404209503
14.7407731347365 23.132226865263497 17.5137731347365
10.736226865263497 9.1802268652635 3.7857731347365
3.9707731347365005 12.2562268652635 10.190226865263504
0.16368059579049543 7.624226865263502 1.8842268652635
27.5077731347365 1.9512268652635 19.1657731347365
17.542226865263494 18.0803194042095 18.1067731347365
13.422226865263504 9.8937731347365 20.0462268652635
28.250319404209502 31.6317731347365 20.7596805957905
10.6277731347365 14.117226865263497 14.958319404209501
0.6012268652634987 28.2083194042095 31.199226865263505
9.8992268652635 31.1346805957905 15.5792268652635
30.6653194042095 3.192680595790506 15.1927731347365
27.376773134736503 1.046773134736501 20.312226865263504
5.794226865263504 7.913680595790495 25.5027731347365
25.325319404209502 11.853680595790493 31.142319404209502
15.090226865263496 8.0126805957905 7.953773134736501
27.878226865263507 15.636226865263502 2.8492268652634962
1.026226865263503 22.4657731347365 1.9562268652634955
30.559226865263504 18.0847731347365 6.4167731347365
4.435226865263495 2.7262268652634987 21.4327731347365
20.511226865263502 28.8203194042095 19.0882268652635
28.4717731347365 25.0977731347365 0.25968059579049907
25.4567731347365 25.875319404209502 15.834226865263496
14.1547731347365 28.8417731347365 27.044773134736502
26.9127731347365 14.3527731347365 29.874226865263502
11.6667731347365 24.325226865263495 28.9863194042095
24.748411943155503 19.8597731347365 2.0338656736824987
11.584773134736501 20.596226865263496 29.9037731347365
28.1323194042095 7.615226865263502 29.6862268652635
23.654226865263503 17.3532268652635 3.4997731347365004
7.402773134736501 21.553226865263504 25.245773134736503
13.6307731347365 28.522226865263498 21.5126805957905
14.2417731347365 1.7782268652634983 14.434680595790496
6.520773134736499 8.4077731347365 27.3187731347365
10.0927731347365 9.162226865263499 31.055773134736498
15.3297731347365 27.9752268652635 16.0477731347365
22.163773134736502 26.562226865263504 13.1117731347365
3.5877731347364996 28.7717731347365 28.494226865263506
13.8337731347365 18.526226865263503 19.1737731347365
28.1226805957905 0.4561343263175104 14.358226865263497
12.849226865263496 0.5146805957904945 29.9737731347365
10.815226865263504 18.0342268652635 25.501773134736503
20.6263194042095 8.4747731347365 3.2976805957904958
28.8423194042095 3.590226865263496 5.6087731347365
25.795226865263494 7.504773134736499 23.2427731347365
1.9832268652634966 0.8462268652634961 3.1222268652634995
1.014773134736501 18.482680595790498 14.850226865263501
18.0342268652635 17.6712268652635 3.0306805957905
4.019680595790504 22.2877731347365 24.9932268652635
4.258319404209498 21.800680595790496 25.5342268652635
27.660773134736502 11.772680595790504 24.9297731347365
11.2977731347365 13.5067731347365 20.6817731347365
3.4606805957904925 20.155226865263494 4.855680595790503
7.824226865263505 28.9782268652635 18.9692268652635
30.6657731347365 16.645226865263503 13.5242268652635
25.2342268652635 25.896226865263493 16.210680595790507
20.7117731347365 27.312226865263504 30.3043194042095
16.3647731347365 19.5277731347365 9.086226865263498
22.4477731347365 29.3477731347365 27.7167731347365
10.834226865263496 22.617226865263497 29.381226865263493
19.8507731347365 6.473773134736501 9.679319404209497
10.621226865263502 20.007226865263497 15.7217731347365
1.1836805957905057 26.8567731347365 3.9673194042095012
12.188319404209498 6.0357731347365 12.722319404209504
23.7053194042095 10.8507731347365 3.8862268652635024
21.474773134736502 21.6737731347365 28.0227731347365
22.9247731347365 14.0577731347365 21.288773134736502
3.7312268652635012 9.4022268652635 22.7637731347365
11.235680595790498 27.8367731347365 8.5407731347365
9.0257731347365 2.4732268652634986 8.677773134736501
24.629680595790504 20.7697731347365 24.2987731347365
28.105773134736502 9.3507731347365 4.113773134736499
6.770226865263503 30.9513194042095 24.8502268652635
8.8427731347365 27.357226865263506 23.1742268652635
4.523226865263503 0.04068059579050498 16.349226865263496
15.138226865263498 25.9447731347365 30.989773134736502
19.317773134736502 28.497865673682497 25.1843194042095
21.3033194042095 21.953226865263495 6.794226865263504
2.4572268652635003 20.938226865263495 7.560680595790501
4.5152268652635 29.015226865263493 14.706319404209498
6.8467731347365 31.5457731347365 25.3797731347365
16.5847731347365 6.8496805957905025 16.292226865263494
16.078226865263495 28.450226865263495 23.985226865263506
10.712680595790502 3.982226865263499 19.1327731347365
31.7273194042095 23.7037731347365 6.891680595790504
3.6052268652634964 27.690773134736503 26.753319404209503
30.099773134736502 23.0147731347365 7.297226865263504
28.400226865263498 9.1233194042095 16.947226865263495
23.0257731347365 11.9727731347365 26.7577731347365
23.8717731347365 27.806773134736503 8.037680595790505
0.5616805957905058 28.3167731347365 29.4512268652635
5.0547731347365 29.818226865263505 1.6042268652634988
29.2243194042095 23.6627731347365 13.197226865263495
25.2707731347365 24.0607731347365 19.9413194042095
25.2077731347365 14.842226865263498 21.9963194042095
15.976319404209502 19.3487731347365 27.428773134736502
14.3187731347365 27.226226865263506 5.012680595790499
10.895226865263503 3.546773134736501 19.2037731347365
21.7967731347365 3.188226865263495 32.0267731347365
15.1797731347365 17.892319404209502 12.6177731347365
0.647226865263498 22.114226865263497 1.7317731347364997
31.2667731347365 29.0137731347365 16.2337731347365
5.473773134736501 4.5937731347365 0.48168059579049327
23.232226865263506 26.8507731347365 12.616773134736501
4.4427731347365 5.9116805957905 0.5036805957904988
4.962226865263496 24.3863194042095 3.2582268652635022
13.599226865263496 30.666773134736502 27.264319404209502
0.9772268652634963 13.663680595790495 0.6216805957904938
10.954680595790492 15.490226865263502 3.7757731347365002
3.9842268652635013 11.391226865263498 10.4897731347365
31.315773134736503 2.998773134736501 9.0797731347365
4.302680595790505 3.1372268652635 21.9457731347365
3.296680595790505 2.178226865263504 8.356680595790493
18.0147731347365 3.9517731347365004 26.486773134736502
19.4032268652635 4.0306805957905 31.1903194042095
13.669226865263504 14.6787731347365 4.4562268652634955
26.266226865263498 5.3932268652635 21.355226865263496
14.043680595790505 25.3987731347365 3.4037731347365003
29.264226865263502 4.180226865263499 24.4687731347365
9.7867731347365 1.6287731347365 16.0847731347365
17.4782268652635 29.750773134736498 11.1307731347365
27.8303194042095 18.372226865263507 22.1993194042095
2.6263194042095 26.561773134736498 15.687773134736501
23.6577731347365 6.0447731347365 15.931226865263504
3.7072268652635003 13.8327731347365 27.599773134736502
17.9577731347365 28.4187731347365 10.980226865263496
12.286226865263501 17.1507731347365 28.2157731347365
18.9182268652635 13.877226865263502 14.2412268652635
21.9277731347365 9.8857731347365 8.3757731347365
25.395319404209502 3.2806805957905 20.4267731347365
21.6587731347365 19.9637731347365 6.503680595790499
27.392226865263503 30.4212268652635 12.535226865263503
23.854865673682497 0.0012268652634972455 17.544680595790496
6.998226865263497 18.6062268652635 28.617773134736503
20.1273194042095 18.4673194042095 4.156680595790505
29.0912268652635 3.8422268652634983 17.877226865263502
18.378226865263507 14.651319404209499 26.9383194042095
4.875680595790499 4.580226865263505 12.965226865263496
4.461226865263498 3.8352268652635004 1.6532268652634983
28.6952268652635 11.1967731347365 2.499680595790494
19.604226865263506 4.7102268652635 20.7992268652635
29.6652268652635 21.2893194042095 3.339226865263498
21.602773134736502 1.9786805957904932 17.8487731347365
24.499226865263502 25.8022268652635 27.3487731347365
3.0847731347364995 25.8173194042095 2.9357731347365004
27.9017731347365 9.0487731347365 13.371226865263502
11.6937731347365 29.0053194042095 31.221226865263496
9.049226865263499 2.0537731347365007 10.9176805957905
27.462319404209502 19.4323194042095 21.864226865263497
28.955226865263505 23.4957731347365 26.7697731347365
4.430226865263499 1.0642268652634996 20.1113194042095
4.725226865263501 5.046680595790505 1.8422268652634983
29.1067731347365 23.0642268652635 14.134680595790499
15.360588056844506 9.432226865263495 8.822226865263495
0.4127731347365007 12.0647731347365 25.438226865263495
29.8837731347365 27.5407731347365 2.665680595790505
10.372773134736502 2.9662268652635007 26.843226865263496
19.405226865263494 1.3906805957904993 24.4122268652635
13.729226865263499 19.6466805957905 19.8682268652635
11.978226865263501 22.7132268652635 9.203226865263495
6.110319404209502 17.253319404209503 11.917319404209504
30.1793194042095 21.773319404209502 11.543226865263499
10.6132268652635 3.0587731347364997 4.8782268652635
6.2887731347365 10.2866805957905 18.8277731347365
28.711226865263505 0.9492268652635047 20.8247731347365
15.2267731347365 16.9297731347365 15.0997731347365
13.4907731347365 30.66368059579051 11.5272268652635
2.6007731347364995 5.668226865263499 31.888226865263498
25.920226865263494 2.4576805957904924 24.650226865263498
21.5187731347365 23.071226865263505 31.2177731347365
19.2656805957905 15.0246805957905 4.083680595790497
7.5187731347365006 11.9553194042095 24.3262268652635
1.8372268652634958 12.240226865263502 5.4422268652635
0.7112268652634981 25.6037731347365 13.348226865263499
23.6832268652635 1.4502268652634953 12.753680595790499
12.901134326317504 9.959226865263496 29.913773134736502
11.924680595790505 28.5787731347365 19.5342268652635
1.705226865263505 6.392773134736501 6.3087731347365
5.421226865263499 13.8262268652635 23.4377731347365
9.1877731347365 13.8707731347365 9.318226865263505
4.694773134736501 18.9487731347365 11.185226865263495
22.613319404209502 13.456773134736501 27.129226865263497
3.0826805957904924 20.447226865263495 5.970226865263498
28.5307731347365 4.9007731347365 25.684226865263504
22.381226865263493 24.283226865263494 3.0237731347364996
2.6832268652634994 27.345226865263506 16.209680595790502
27.3857731347365 11.619680595790499 6.652773134736501
29.9387731347365 17.321226865263505 26.687773134736503
1.1447731347365 15.970319404209501 8.8557731347365
26.5582268652635 27.2913194042095 24.6367731347365
31.8653194042095 12.659680595790505 28.4357731347365
31.8017731347365 17.7162268652635 3.6867731347365
12.3202268652635 22.750773134736498 23.824226865263505
0.08722686526349577 6.1402268652635 29.4452268652635
4.383773134736501 15.644226865263498 1.6296805957905036
0.7196805957904928 17.712226865263496 4.441680595790501
0.37622686526349725 12.554226865263495 22.9987731347365
17.2967731347365 29.1857731347365 6.495680595790503
3.6447731347365 20.9482268652635 14.5897731347365
20.6633194042095 23.267226865263503 2.0897731347365003
30.0187731347365 10.735773134736501 19.1947731347365
32.0797731347365 5.453680595790502 28.614773134736502
19.395226865263503 15.3357731347365 16.458226865263505
10.782226865263503 31.517226865263503 7.995773134736501
7.6027731347365 7.283773134736501 21.4917731347365
4.178865673682509 28.7368656736825 27.6987731347365
16.558319404209502 10.870226865263497 4.097226865263501
28.2287731347365 6.838680595790493 18.042226865263494
1.0352268652635033 3.3827731347364995 5.160226865263503
6.386226865263502 2.181226865263504 4.8996805957905
21.6213194042095 28.0877731347365 23.8592268652635
23.462226865263496 30.974773134736502 18.6477731347365
8.1556805957905 6.077680595790497 30.6603194042095
4.020226865263503 1.1996805957904968 0.6107731347365011
0.1373194042094994 9.6462268652635 1.6627731347365007
31.8267731347365 16.567773134736502 24.0827731347365
29.6307731347365 19.7877731347365 17.305680595790506
9.6376805957905 20.8987731347365 10.4313194042095
4.2912268652635035 15.6787731347365 18.652226865263493
2.610773134736501 28.262226865263493 22.047226865263504
19.943226865263505 6.472773134736499 5.917226865263501
19.961226865263505 30.5097731347365 15.8842268652635
19.4153194042095 14.9007731347365 13.194319404209498
30.160773134736502 0.10422686526349878 3.7117731347365
18.5847731347365 16.4272268652635 27.815773134736503
17.0697731347365 3.945680595790506 4.749226865263502
29.267319404209502 10.3817731347365 16.1567731347365
22.9887731347365 15.969319404209504 9.756680595790499
23.7967731347365 6.5771343263175055 14.9722268652635
3.639773134736501 25.2402268652635 15.030773134736501
0.19713432631751004 29.3437731347365 16.1817731347365
6.8377731347365 12.048226865263501 31.7267731347365
21.1837731347365 10.414226865263501 6.683226865263499
11.206773134736501 13.2687731347365 27.040865673682504
12.352226865263496 15.7717731347365 4.957680595790492
9.799226865263499 18.2047731347365 24.041773134736502
22.2137731347365 7.8437731347365 17.699226865263505
17.8617731347365 29.5737731347365 11.1737731347365
19.142226865263503 29.5483194042095 7.4677731347365
10.084226865263496 2.530773134736501 4.731226865263501
9.139226865263502 18.477226865263496 23.1677731347365
23.525680595790504 26.4743194042095 13.2907731347365
10.6462268652635 21.080226865263505 9.053226865263504
27.477226865263496 20.2287731347365 2.0122268652635
11.3217731347365 2.6342268652635 4.175773134736501
28.680319404209502 11.334773134736501 30.763226865263498
28.0927731347365 7.885226865263498 11.955226865263505
6.6637731347365 1.7106805957904925 26.0303194042095
0.28477313473650057 10.551319404209497 0.23277313473650096
22.4632268652635 26.142319404209502 12.583319404209501
16.541226865263503 23.390226865263493 21.215226865263496
7.261226865263502 15.5697731347365 3.9107731347365
4.803773134736501 24.1477731347365 10.071226865263505
23.1837731347365 24.5117731347365 15.386680595790494
6.1372268652635 17.4812268652635 16.7163194042095
0.7482268652634971 4.656680595790505 6.6982268652635
13.0212268652635 18.3262268652635 19.511226865263502
30.0717731347365 1.5197731347365 27.464865673682496
1.126773134736501 23.8577731347365 19.532226865263503
30.878226865263507 21.0213194042095 11.4897731347365
9.991319404209502 8.593226865263496 10.548226865263501
15.3046805957905 14.926226865263494 4.770226865263503
4.569680595790501 4.9146805957905 0.17277313473650047
16.1747731347365 18.8123194042095 26.4933194042095
7.614226865263497 8.435680595790501 26.4637731347365
1.7837731347365011 4.276226865263503 5.2667731347365
7.540773134736501 11.4007731347365 22.650226865263498
9.9572268652635 31.491319404209502 8.0157731347365
0.8777731347365005 22.798226865263494 0.06822686526350452
26.677773134736498 16.9452268652635 21.873680595790503
27.385226865263498 31.135226865263498 6.0937731347365
6.534773134736501 14.801226865263494 12.632680595790504
30.860226865263506 6.748680595790503 13.3902268652635
3.840680595790502 17.8887731347365 10.537226865263499
4.709226865263496 28.4417731347365 27.7902268652635
22.8817731347365 3.471226865263496 31.3237731347365
0.6197731347364996 13.920319404209504 26.2067731347365
24.462226865263496 30.855773134736502 17.676226865263494
22.9023194042095 13.412226865263499 27.4757731347365
28.598226865263506 11.151226865263503 0.8256805957905016
2.3281343263175103 21.0977731347365 20.0347731347365
3.958680595790497 1.5077731347364995 4.4837731347365
31.806773134736503 7.787226865263499 26.1857731347365
25.4902268652635 6.726680595790498 22.709319404209502
1.5892268652634982 16.322226865263495 9.1492268652635
5.953226865263495 31.2343194042095 24.3427731347365
19.8517731347365 12.8187731347365 31.238319404209502
26.072226865263495 20.209680595790502 7.108226865263497
15.9457731347365 21.0177731347365 24.558773134736498
25.7102268652635 29.425773134736502 30.3537731347365
28.485319404209502 10.9667731347365 24.5177731347365
18.8577731347365 0.35222686526349634 12.2622268652635
17.1092268652635 27.4122268652635 14.733226865263497
14.537680595790505 13.523773134736501 4.162773134736501
26.4753194042095 6.9037731347365 6.9876805957904935
4.2047731347365005 0.5422268652635012 16.735226865263506
1.1862268652634995 27.583226865263505 8.168773134736501
14.383226865263502 8.5087731347365 11.570680595790506
24.2107731347365 22.0957731347365 11.546226865263499
30.3622268652635 10.4572268652635 10.869773134736501
0.7426805957905032 16.5246805957905 17.991226865263506
22.3847731347365 5.7806805957905 5.647680595790504
9.4107731347365 28.1427731347365 4.360226865263499
10.486226865263497 3.858680595790503 20.878226865263507
10.428226865263504 26.3873194042095 18.483226865263497
26.4577731347365 23.819226865263495 21.8687731347365
2.9862268652634967 12.731226865263501 5.340226865263496
20.0087731347365 5.8147731347365 27.9692268652635
31.052773134736498 23.8387731347365 7.3657731347365
5.697226865263495 24.7903194042095 11.612226865263501
14.692319404209503 29.130226865263502 26.3643194042095
29.494773134736498 6.0812268652634955 13.546226865263499
14.9067731347365 10.036226865263501 3.2463194042094976
6.103226865263501 27.876865673682502 7.972680595790493
16.002226865263502 25.134226865263493 13.6067731347365
19.4842268652635 26.1577731347365 30.876226865263497
3.4646805957904974 5.271773134736501 24.8207731347365
2.6563194042095013 8.930773134736501 18.6883194042095
4.848680595790498 5.591680595790493 31.9182268652635
22.1467731347365 31.1357731347365 14.0157731347365
11.8077731347365 26.2057731347365 30.3393194042095
29.9403194042095 0.4272268652634992 28.4627731347365
13.1767731347365 5.0747731347365 18.621226865263502
18.9482268652635 12.4067731347365 31.422773134736502
20.739773134736502 18.262226865263493 22.923226865263494
23.7027731347365 29.1793194042095 29.2877731347365
15.706773134736501 26.3267731347365 0.35822686526349656
23.8262268652635 2.5687731347364995 24.5467731347365
6.0062268652635 20.9647731347365 27.2717731347365
8.489680595790503 16.864226865263497 7.505226865263502
7.780226865263501 18.9457731347365 0.11322686526349912
28.0672268652635 11.8357731347365 0.3712268652635018
10.9877731347365 17.026226865263503 13.7057731347365
32.1337731347365 16.9027731347365 23.5747731347365
14.621226865263502 28.4332268652635 20.967226865263505
4.645773134736499 16.8696805957905 24.3077731347365
23.4237731347365 10.383226865263502 20.1707731347365
31.5073194042095 23.5817731347365 1.228226865263501
5.9597731347364995 15.069226865263495 3.7782268652634983
4.044680595790496 1.4322268652634946 3.9517731347365004
0.5507731347365006 14.8677731347365 27.8377731347365
4.4617731347365 22.7987731347365 10.088773134736499
18.202226865263505 8.9362268652635 28.349773134736502
3.3657731347365 20.233773134736502 14.549226865263499
23.5317731347365 20.105226865263496 15.696226865263505
2.971226865263496 26.191226865263495 2.3647731347365006
20.5827731347365 7.354226865263499 6.008226865263502
11.649319404209503 7.229680595790498 0.3277731347364998
22.754226865263497 14.0027731347365 20.6497731347365
6.035226865263503 15.004226865263497 12.4572268652635
20.8717731347365 1.8207731347365002 27.7667731347365
10.367226865263497 31.860319404209502 15.3397731347365
7.910680595790495 9.496680595790494 27.4242268652635
11.468226865263496 9.074680595790497 26.803226865263504
23.946226865263505 25.785226865263503 26.3597731347365
27.542226865263494 15.130680595790494 29.9133194042095
29.397226865263498 8.065773134736501 7.8527731347365
1.466773134736501 17.6177731347365 3.3047731347365
28.7807731347365 24.4677731347365 9.1282268652635
4.3262268652635 10.9027731347365 10.797226865263504
2.824680595790497 22.663773134736502 15.340226865263496
27.8137731347365 15.0037731347365 31.507680595790504
25.175226865263504 23.4482268652635 5.476680595790498
10.777319404209504 0.2936805957905051 21.8273194042095
8.472680595790493 17.9827731347365 21.426226865263494
6.475226865263501 5.472773134736499 30.4697731347365
17.160226865263503 28.5762268652635 15.891226865263498
13.1432268652635 30.1557731347365 3.3792268652634974
6.628134326317507 29.7357731347365 1.6952268652634999
10.8936805957905 17.544226865263504 24.0573194042095
11.979680595790498 26.5683194042095 17.3652268652635
26.2037731347365 15.0002268652635 30.2053194042095
19.844680595790507 3.546773134736501 9.3022268652635
24.774226865263493 11.349226865263496 30.8207731347365
18.679226865263495 30.8163194042095 28.657226865263503
18.804226865263495 28.068226865263505 28.406680595790505
15.924773134736501 14.8767731347365 23.8673194042095
3.067680595790506 28.699226865263505 29.497773134736498
22.4757731347365 30.611773134736502 10.016226865263498
18.4757731347365 9.593226865263496 12.619134326317507
23.477773134736502 14.2147731347365 21.9727731347365
16.7187731347365 15.440226865263504 25.309226865263504
30.8063194042095 16.881773134736502 4.7106805957904925
9.7472268652635 21.3713194042095 19.5757731347365
25.2072268652635 23.5912268652635 20.1157731347365
9.8777731347365 10.8262268652635 5.763226865263498
18.9143194042095 28.7067731347365 24.6557731347365
26.276319404209502 8.5657731347365 8.620226865263497
19.7867731347365 29.8747731347365 20.6323194042095
1.2822268652635032 28.048226865263494 31.5413194042095
11.909226865263498 8.1117731347365 15.792319404209504
0.6732268652635014 21.5912268652635 1.9532268652634954
0.4447731347365007 23.7237731347365 6.613773134736499
2.694226865263495 21.1413194042095 19.3957731347365
14.047226865263504 10.154226865263503 30.125319404209502
18.358226865263497 16.6047731347365 24.439773134736498
3.327680595790497 31.0737731347365 23.7907731347365
29.229226865263506 24.955226865263505 31.312226865263504
21.762226865263493 1.7266805957904978 17.2187731347365
22.910773134736502 29.3323194042095 31.483773134736502
9.191680595790501 31.8423194042095 20.144134326317513
26.7637731347365 7.444226865263495 22.8897731347365
11.873226865263497 31.4743194042095 2.148680595790495
6.1392268652635025 6.452226865263505 4.651226865263503
21.462226865263496 9.6037731347365 13.2772268652635
17.6107731347365 6.8292268652635 16.2207731347365
27.4383194042095 0.7946805957904957 12.3137731347365
31.760226865263498 0.3347731347364995 30.6187731347365
16.75268059579051 15.651680595790495 20.218319404209502
8.174680595790505 3.5956805957904976 21.973226865263506
26.7957731347365 12.225680595790493 26.628773134736498
7.661226865263501 21.244319404209502 6.6792268652634945
28.9033194042095 12.075319404209498 2.3562268652635012
7.447226865263495 12.1097731347365 23.6817731347365
12.472680595790493 15.2977731347365 21.726226865263506
27.486773134736502 29.6343194042095 2.415680595790505
2.8552268652634964 10.882226865263497 12.736226865263497
27.5457731347365 6.4437731347364995 30.051226865263494
22.0487731347365 6.889773134736501 19.3532268652635
7.207773134736501 21.0306805957905 6.8617731347365005
9.7467731347365 31.170226865263494 23.4957731347365
16.0887731347365 27.6917731347365 23.8172268652635
24.907319404209503 12.7597731347365 27.6447731347365
20.052319404209502 28.2377731347365 24.030226865263494
26.3177731347365 23.908226865263494 26.4007731347365
2.275226865263498 27.309773134736503 12.326319404209503
6.924226865263499 20.628773134736498 28.2727731347365
10.754680595790504 22.230226865263496 22.3077731347365
2.9983194042095 12.6862268652635 28.6323194042095
22.553226865263504 14.8197731347365 6.151226865263503
11.944226865263495 14.090226865263496 26.417226865263494
7.4837731347365 20.065226865263504 29.059773134736503
10.436773134736502 9.879226865263497 24.2723194042095
3.1607731347365 2.6157731347365 20.896226865263493
13.074226865263505 30.5947731347365 16.6677731347365
15.635226865263498 18.8607731347365 9.983680595790503
6.0612268652634995 8.6406805957905 27.9057731347365
2.7472268652634995 3.4162268652635035 19.9947731347365
1.4102268652635033 7.354226865263499 7.952226865263505
23.900226865263498 2.9847731347365 32.1233194042095
