31.610319404209502 28.3202268652635 6.306773134736501
30.622226865263507 5.848773134736501 21.6717731347365
0.41822686526349884 8.5713194042095 5.4327731347365
8.8767731347365 27.480773134736502 14.8292268652635
9.057226865263495 1.3307731347365 8.1496805957905
15.978226865263501 3.2317731347364997 6.178226865263504
16.7102268652635 28.4577731347365 24.8082268652635
15.6207731347365 2.826680595790492 10.930680595790506
3.4166805957904955 30.2983194042095 9.874226865263502
5.8426805957904975 9.6496805957905 24.331226865263496
31.8847731347365 24.2317731347365 9.199226865263505
8.3197731347365 1.860226865263499 9.6087731347365
28.726226865263506 11.4347731347365 23.706319404209502
31.5917731347365 29.3853194042095 28.5013194042095
3.5707731347365 1.1692268652635036 24.325226865263495
0.3976805957905043 6.991226865263499 11.571226865263505
0.6646805957905002 5.284773134736501 10.3962268652635
1.3202268652634999 20.6772268652635 19.3807731347365
23.005226865263502 16.502226865263502 13.8557731347365
0.624680595790494 1.1876805957904963 31.9007731347365
18.9182268652635 1.9407731347365011 28.937226865263504
25.765226865263493 9.857226865263499 3.2107731347365007
8.726226865263499 0.3587731347365004 26.9297731347365
29.3357731347365 29.2767731347365 13.624226865263502
11.0642268652635 26.119226865263506 24.8317731347365
29.0197731347365 29.839226865263505 2.1487731347364996
5.1052268652634964 8.534680595790505 22.562226865263504
20.644226865263498 17.1177731347365 3.912680595790505
3.2507731347365 23.7273194042095 25.9873194042095
18.646226865263493 13.450226865263495 11.190226865263504
26.989226865263497 7.4117731347364995 26.9267731347365
6.3657731347365 13.1517731347365 2.0563194042095
21.1263194042095 10.0707731347365 13.3067731347365
31.9573194042095 10.2537731347365 19.3397731347365
21.6967731347365 22.6533194042095 19.9977731347365
31.6997731347365 26.285773134736502 9.683773134736501
7.1407731347365 18.0792268652635 0.6556805957904999
4.5366805957905 29.4587731347365 10.1982268652635
29.5697731347365 19.5177731347365 4.2926805957905
31.7327731347365 6.8397731347365 25.3447731347365
23.277226865263493 18.6387731347365 28.976226865263506
12.168773134736501 5.6797731347365 7.210773134736501
17.4947731347365 10.014226865263502 27.614773134736502
25.792226865263494 24.2697731347365 28.0977731347365
16.730226865263496 28.7072268652635 0.2642268652635025
12.9427731347365 18.5847731347365 10.203226865263495
27.589226865263505 4.640680595790499 4.141226865263498
22.372226865263507 31.4057731347365 26.8377731347365
6.985226865263499 30.4087731347365 15.363773134736501
4.9632268652635005 24.2497731347365 14.165226865263499
23.765226865263493 19.991226865263506 32.0643194042095
2.0107731347364997 17.2402268652635 10.0092268652635
20.012226865263493 16.6002268652635 17.4523194042095
23.5822268652635 2.4767731347365007 13.0777731347365
6.954680595790492 19.1032268652635 23.379226865263497
22.1563194042095 16.4513194042095 26.5577731347365
27.132226865263497 31.511226865263502 24.0557731347365
13.506680595790499 16.601226865263506 30.7627731347365
14.734680595790493 12.188226865263495 12.980226865263496
18.319226865263495 24.767226865263503 31.6497731347365
19.976226865263506 5.672226865263504 10.1552268652635
5.283773134736501 0.6412268652634978 25.2842268652635
31.238319404209502 27.4517731347365 5.4107731347365
31.8223194042095 31.2103194042095 15.150680595790504
31.7667731347365 10.4332268652635 1.0546805957905008
3.6781343263175046 30.9253194042095 24.1447731347365
28.2327731347365 15.9557731347365 0.3696805957904985
26.959226865263496 17.125319404209502 6.970680595790498
31.9658656736825 29.9847731347365 19.873226865263497
10.0122268652635 14.9387731347365 28.6277731347365
16.1457731347365 9.9497731347365 26.3877731347365
3.722226865263501 31.8947731347365 10.385226865263498
13.1757731347365 5.3917731347365 28.425226865263504
18.372226865263507 0.455226865263505 13.2637731347365
17.9733194042095 22.9337731347365 21.1797731347365
8.492773134736499 9.559226865263504 0.03077313473649923
12.996319404209498 13.229226865263499 19.3442268652635
16.317773134736502 0.506680595790499 0.9877731347365
4.440773134736501 24.3567731347365 13.023226865263503
11.4236805957905 20.5577731347365 31.388226865263498
5.9056805957905 30.9707731347365 29.1647731347365
7.794680595790496 29.271226865263493 0.4077731347364999
31.8417731347365 9.3932268652635 16.7497731347365
15.520226865263503 29.745773134736503 11.6037731347365
31.2067731347365 21.6062268652635 31.0967731347365
30.8397731347365 25.308773134736498 26.748773134736503
10.837226865263496 29.217226865263505 10.529226865263503
10.3017731347365 9.489680595790503 3.0756805957905016
13.9067731347365 9.7222268652635 30.6447731347365
26.8167731347365 16.431680595790496 19.2303194042095
3.152773134736501 24.1032268652635 24.184680595790496
26.7937731347365 29.550773134736502 13.6017731347365
3.6037731347364996 27.791773134736502 29.019226865263498
31.3957731347365 28.560226865263495 0.4232268652635014
2.1796805957905008 21.4602268652635 26.4643194042095
9.0937731347365 28.393226865263493 11.5993194042095
20.434226865263504 12.3087731347365 23.605773134736502
9.5672268652635 5.7652268652635 24.494226865263506
25.8352268652635 11.351226865263499 3.964226865263498
6.248773134736501 0.2826805957904952 14.354226865263499
13.8647731347365 29.8437731347365 0.9762268652634987
31.4017731347365 26.9513194042095 10.9267731347365
14.782680595790495 5.0967731347365 10.2087731347365
9.6922268652635 23.1203194042095 13.639773134736501
29.831319404209502 31.7297731347365 3.367226865263497
17.1677731347365 7.522680595790504 6.453226865263495
27.400226865263498 16.022226865263498 7.615226865263502
10.5242268652635 20.4632268652635 15.400226865263498
0.7622268652635 15.080226865263505 21.392319404209502
25.220226865263506 30.4877731347365 29.7197731347365
17.753226865263507 13.6887731347365 31.712319404209502
24.064773134736498 16.866226865263506 13.188226865263495
6.008773134736501 18.0767731347365 12.588680595790493
30.212226865263496 12.049226865263499 11.903226865263498
27.3082268652635 25.5693194042095 10.5067731347365
23.0342268652635 12.7887731347365 19.9302268652635
15.294226865263504 9.607773134736501 23.331226865263496
10.2592268652635 16.669226865263504 18.507226865263497
27.0957731347365 28.6947731347365 24.672226865263504
2.830226865263505 20.125773134736498 31.9783194042095
28.9047731347365 19.800226865263504 3.1987731347365003
3.7852268652635033 31.899226865263493 25.410226865263503
9.791226865263503 26.866773134736498 25.586226865263505
19.592226865263505 27.646226865263493 10.538226865263503
30.1937731347365 8.839226865263498 8.389226865263502
13.904226865263503 15.0473194042095 4.059226865263504
9.013680595790504 5.479773134736501 12.864226865263497
25.0702268652635 30.700226865263495 17.8063194042095
20.8367731347365 5.525680595790504 18.098680595790498
14.013226865263498 1.9022268652635006 16.675226865263504
23.3567731347365 2.1372268652635 12.5307731347365
26.394226865263498 25.7866805957905 26.366773134736498
8.523226865263503 14.3427731347365 21.2057731347365
27.0407731347365 28.4272268652635 18.6952268652635
10.866680595790498 28.297773134736502 15.006319404209503
27.8267731347365 27.9787731347365 23.8803194042095
23.2417731347365 14.651226865263503 22.516226865263498
7.8237731347365 14.1167731347365 15.915226865263499
0.08877313473649906 5.771773134736501 10.708680595790497
8.605226865263496 29.1813194042095 10.834680595790502
3.5486805957905005 25.280226865263494 24.360319404209502
17.732226865263506 6.191773134736501 3.846226865263496
5.9562268652634955 18.3713194042095 2.7717731347365007
15.1247731347365 1.853226865263501 17.3887731347365
19.4397731347365 20.2047731347365 22.6062268652635
25.897226865263498 0.22731940420949925 1.3022268652634992
11.764226865263502 26.4557731347365 22.315226865263504
12.6787731347365 15.496226865263502 18.4903194042095
23.410226865263503 8.2307731347365 10.464680595790497
9.553226865263504 29.2283194042095 31.9797731347365
20.7913194042095 5.861226865263497 10.922226865263504
22.6976805957905 14.5017731347365 9.648773134736501
23.1777731347365 3.9832268652634966 18.641226865263498
18.1406805957905 1.5632268652634949 11.5882268652635
8.147680595790504 1.6662268652635035 3.1681343263175137
31.8262268652635 4.4422268652635 7.4452268652635
25.430319404209502 9.425226865263504 2.532226865263503
7.799773134736501 17.9272268652635 6.2417731347364995
22.381226865263493 31.2273194042095 0.7387731347364994
29.433680595790506 16.4447731347365 27.980226865263496
19.0432268652635 26.5767731347365 19.1032268652635
2.533773134736501 18.991226865263506 28.286226865263494
19.9327731347365 18.5737731347365 11.461226865263498
12.1257731347365 30.1337731347365 2.8582268652634966
14.499226865263502 5.002226865263502 28.5977731347365
13.788226865263503 23.1767731347365 20.324226865263505
23.6197731347365 21.0702268652635 31.622773134736498
9.668680595790505 23.2853194042095 31.875319404209502
24.063226865263495 20.4617731347365 31.425226865263504
2.447226865263495 20.7973194042095 18.369226865263506
25.5747731347365 26.7102268652635 16.7357731347365
13.33713432631751 28.274226865263493 28.023226865263503
8.989680595790503 3.596226865263496 29.673226865263494
7.1617731347364995 13.5377731347365 3.735226865263499
13.3517731347365 21.5397731347365 1.8067731347365008
17.2077731347365 28.9357731347365 29.5817731347365
6.6143194042095 14.693226865263505 20.2463194042095
12.566226865263495 4.1317731347365 29.5513194042095
4.0777731347365 24.9443194042095 24.1827731347365
6.428680595790496 18.1832268652635 23.076680595790506
31.6387731347365 2.3201343263175147 27.867773134736503
18.9257731347365 7.0092268652635 23.8567731347365
26.857226865263506 23.0497731347365 26.861226865263497
6.2347731347365 18.474226865263496 16.369226865263506
9.0317731347365 24.3387731347365 18.7012268652635
21.9517731347365 23.2252268652635 25.4433194042095
31.6107731347365 7.979319404209502 12.1337731347365
21.849226865263496 3.7682268652635003 5.3247731347365
10.511226865263502 28.5737731347365 24.864773134736502
9.6527731347365 8.6527731347365 1.6476805957905043
22.1937731347365 22.3107731347365 7.357226865263499
1.3132268652634949 15.098226865263499 14.317319404209503
19.4447731347365 11.612226865263501 13.665319404209502
25.7803194042095 5.739226865263497 30.369226865263506
0.5682268652635045 15.4867731347365 20.110680595790498
16.791226865263503 2.7367731347365005 25.328319404209502
18.462226865263496 27.0486805957905 18.2447731347365
15.281226865263498 9.074226865263505 31.0223194042095
1.235226865263499 23.9937731347365 8.5302268652635
0.32022686526349986 7.235680595790498 25.364773134736502
4.509319404209503 1.9072268652635032 24.9487731347365
26.523226865263503 24.249226865263502 15.5267731347365
9.391680595790504 13.779226865263503 8.734226865263501
31.0977731347365 13.5577731347365 26.970680595790498
17.217226865263505 10.8692268652635 17.5027731347365
17.340319404209502 0.6936805957904966 28.2177731347365
15.8887731347365 1.4177731347364997 26.768226865263493
18.5377731347365 3.8412268652635007 29.1617731347365
20.6916805957905 8.5002268652635 2.273680595790495
25.419226865263504 27.507226865263497 10.870226865263497
27.2697731347365 10.834773134736501 9.561773134736502
2.0986805957904977 16.3257731347365 30.517226865263503
27.3533194042095 16.322226865263495 20.0397731347365
21.335680595790507 2.4056805957905 6.7247731347365
24.515226865263493 21.757226865263497 1.5427731347364997
11.6257731347365 5.476680595790498 29.645226865263503
2.188226865263495 2.806680595790496 30.501773134736503
18.092226865263505 17.3447731347365 24.2817731347365
21.3667731347365 8.0062268652635 26.280226865263494
3.759680595790499 22.9932268652635 24.3897731347365
8.709226865263496 4.7257731347364995 12.8427731347365
1.1756805957904959 22.8993194042095 6.0336805957905
25.15513432631751 7.8696805957904985 8.8977731347365
27.919773134736502 15.790226865263499 19.428226865263504
27.5747731347365 22.199226865263505 10.342226865263498
6.0142268652635025 21.151226865263503 9.5867731347365
0.2026805957904969 22.7596805957905 5.19413432631751
17.1922268652635 12.101226865263499 19.003226865263507
30.7913194042095 18.852773134736502 4.347680595790493
4.114226865263497 4.107226865263499 29.657226865263503
22.286226865263494 2.779680595790495 12.882226865263497
21.6553194042095 13.3902268652635 8.1627731347365
31.6023194042095 4.636226865263502 8.0642268652635
16.5603194042095 23.4337731347365 9.6147731347365
18.0347731347365 2.9757731347364995 28.4463194042095
16.7162268652635 15.3352268652635 31.5907731347365
12.209226865263496 1.8656805957904936 22.678773134736502
11.492226865263497 22.346226865263496 8.5797731347365
12.2027731347365 24.0117731347365 14.928226865263504
25.4602268652635 21.441226865263495 2.0092268652635
8.7437731347365 12.007226865263497 23.5117731347365
8.362680595790493 15.3687731347365 15.8352268652635
7.961226865263498 27.6967731347365 1.5346805957905048
5.351226865263499 12.190226865263504 11.5306805957905
15.622411943155498 29.5777731347365 3.8196805957905013
25.8237731347365 16.7377731347365 16.1417731347365
26.706680595790502 11.585319404209503 13.0387731347365
30.0702268652635 7.988773134736499 6.019226865263498
14.556226865263504 30.360226865263506 25.788226865263503
8.9302268652635 1.8807731347365007 4.087680595790502
28.392865673682508 7.197226865263495 13.9587731347365
9.7887731347365 21.1413194042095 23.1122268652635
0.7567731347365001 16.248226865263497 4.5687731347364995
31.372319404209502 8.5852268652635 16.4887731347365
14.0117731347365 25.4723194042095 12.3537731347365
12.3437731347365 24.8387731347365 15.468226865263496
13.6307731347365 1.3632268652634991 22.314773134736498
18.688226865263495 9.8597731347365 14.640319404209503
27.6517731347365 25.7067731347365 15.855226865263496
29.063226865263495 30.255226865263502 1.5547731347365001
10.6087731347365 13.8472268652635 14.066226865263495
10.758226865263502 22.1247731347365 20.2567731347365
21.246226865263502 7.4877731347365 8.6252268652635
10.9052268652635 4.0457731347365 8.687226865263504
30.1157731347365 14.142773134736501 0.3316805957905018
28.6043194042095 23.1922268652635 10.539226865263501
29.6437731347365 14.4907731347365 25.3153194042095
14.2027731347365 13.1277731347365 9.315226865263504
0.2337731347365004 26.253319404209503 26.681226865263504
28.816226865263495 13.818226865263505 22.686319404209502
4.128680595790499 23.9377731347365 16.873226865263497
17.221226865263496 27.3412268652635 24.661226865263494
30.2158656736825 29.239773134736502 0.40422686526350304
0.12277313473649976 26.8287731347365 27.363773134736498
15.956773134736501 30.9067731347365 3.4956805957905033
1.2987731347365 31.961865673682496 6.254226865263497
5.528226865263498 8.2077731347365 24.602226865263496
26.2873194042095 28.261226865263502 28.523226865263503
11.7776805957905 12.680773134736501 13.389226865263502
10.311773134736502 5.2502268652635 22.7252268652635
23.7167731347365 2.658226865263501 28.4577731347365
19.7962268652635 1.0576805957905009 12.662226865263499
2.468226865263496 16.1377731347365 24.3047731347365
1.6462268652635004 8.842226865263498 5.2532268652635
8.991773134736501 7.3467731347365 18.157226865263503
29.0817731347365 24.4122268652635 15.199226865263505
18.130226865263502 13.7207731347365 29.5677731347365
3.1767731347365 2.597226865263501 25.4903194042095
30.720226865263506 24.0517731347365 15.4236805957905
17.946226865263505 24.943226865263505 13.4937731347365
12.4517731347365 25.2737731347365 9.6162268652635
11.456319404209498 22.313226865263495 14.834773134736501
13.355226865263496 30.336226865263505 26.104226865263506
13.357773134736501 15.030319404209504 23.3903194042095
20.5137731347365 0.44277313473650004 8.2597731347365
23.974226865263496 21.401319404209502 23.3087731347365
19.712226865263496 11.984226865263501 5.540226865263499
27.9536805957905 15.6277731347365 1.874226865263502
21.4337731347365 15.5297731347365 1.617226865263497
31.939319404209503 8.849680595790502 23.571226865263505
27.8813194042095 21.4417731347365 28.3103194042095
18.1622268652635 25.494226865263506 3.7332268652634966
5.827226865263505 2.7192268652635008 5.780226865263501
22.812226865263504 14.270226865263503 2.4192268652635036
20.1892268652635 22.372226865263507 20.022226865263498
24.6737731347365 31.738319404209502 19.9897731347365
9.495773134736499 13.5507731347365 10.287226865263499
22.742226865263497 14.3917731347365 18.7497731347365
20.913226865263503 18.3517731347365 15.3277731347365
12.973226865263499 10.6967731347365 19.8917731347365
29.3387731347365 28.6247731347365 0.9006805957905044
27.9662268652635 0.654226865263503 15.4317731347365
8.5777731347365 18.440226865263504 2.2926805957905003
20.607226865263506 26.1983194042095 15.6607731347365
12.7877731347365 25.4657731347365 10.8297731347365
4.2827731347365 26.122319404209502 8.8157731347365
5.613319404209502 10.726319404209502 23.1273194042095
7.155773134736501 30.2433194042095 19.7067731347365
30.7203194042095 14.733226865263497 18.8767731347365
21.2072268652635 16.336226865263505 1.6757731347365006
19.7363194042095 18.2327731347365 2.123226865263497
24.0503194042095 19.9987731347365 30.8207731347365
5.793773134736501 16.187226865263504 12.418319404209502
30.8233194042095 25.6333194042095 26.1437731347365
7.697773134736501 1.8992268652635005 29.5967731347365
8.2442268652635 18.627226865263502 24.568226865263505
2.9332268652634994 2.956680595790502 11.215226865263496
22.5133194042095 17.0093194042095 13.4773194042095
17.851226865263506 9.246680595790494 14.602226865263496
27.630226865263502 27.5347731347365 5.039226865263501
24.1947731347365 16.1587731347365 26.131226865263493
24.2853194042095 6.538226865263503 11.996226865263502
12.6117731347365 30.7747731347365 19.315226865263504
20.7607731347365 28.087226865263496 16.107226865263506
25.8047731347365 26.605773134736502 17.8537731347365
6.4947731347365 24.857226865263506 22.0207731347365
3.3356805957904925 20.0197731347365 30.2867731347365
1.9742268652634962 21.133226865263502 27.253773134736498
29.7217731347365 22.6707731347365 30.604226865263506
14.7573194042095 20.871680595790508 10.487226865263501
7.5726805957905015 12.358226865263497 4.7642268652635025
7.4967731347365 8.8662268652635 18.7992268652635
17.3587731347365 28.4037731347365 31.857226865263506
3.853680595790493 30.8177731347365 9.7687731347365
12.126226865263497 11.468226865263496 20.7227731347365
25.1973194042095 7.005680595790494 31.146226865263493
4.138226865263498 18.736226865263497 31.9173194042095
13.0127731347365 29.3773194042095 29.660773134736502
4.4357731347365 23.0287731347365 18.196680595790497
29.0517731347365 0.8016805957905007 4.074226865263505
6.957680595790492 18.9722268652635 24.3136805957905
22.9917731347365 13.361226865263497 1.0117731347365009
28.182226865263495 16.163773134736502 19.7717731347365
11.2027731347365 19.730226865263496 26.7127731347365
0.5552268652634993 30.3352268652635 6.466680595790493
22.648226865263503 6.6257731347365 19.1837731347365
8.3457731347365 1.7546805957905036 27.1627731347365
21.840226865263496 31.769680595790504 26.8927731347365
28.4493194042095 1.269226865263498 17.6517731347365
23.587319404209502 20.632226865263497 29.825226865263495
27.614226865263497 25.2523194042095 25.247773134736498
15.190226865263504 29.7637731347365 26.197226865263495
31.8577731347365 15.557226865263495 31.0503194042095
13.2467731347365 1.7846805957905048 18.5877731347365
24.616773134736498 30.9183194042095 20.075319404209502
18.6387731347365 8.5287731347365 27.236773134736502
14.7132268652635 11.4167731347365 6.6117731347365005
31.3387731347365 5.470134326317506 20.6777731347365
11.948680595790506 29.5283194042095 11.0157731347365
16.641226865263498 12.751226865263497 3.803226865263504
18.9877731347365 7.369226865263499 28.4707731347365
31.7717731347365 1.4887731347364994 27.1922268652635
19.5582268652635 11.0157731347365 4.284773134736501
3.9197731347365004 21.4757731347365 11.2532268652635
2.7216805957905024 12.684773134736501 3.782226865263503
4.857773134736501 15.497680595790499 12.110226865263499
6.4146805957905 30.0047731347365 15.376226865263497
21.4152268652635 11.792226865263501 12.975226865263501
21.7903194042095 18.717226865263505 20.2357731347365
22.0103194042095 5.547226865263504 19.3957731347365
28.7877731347365 0.6007731347364995 9.642773134736501
31.3046805957905 24.8427731347365 9.181680595790496
15.8857731347365 13.651226865263503 8.2407731347365
6.7642268652635025 28.430773134736498 2.3182268652635045
14.373773134736501 1.7802268652635007 29.0702268652635
13.732773134736501 22.578226865263495 3.9627731347364996
27.4217731347365 18.8837731347365 2.3386805957904926
22.8537731347365 31.6387731347365 31.947226865263495
9.395773134736501 5.1227731347365 17.9827731347365
26.205226865263505 25.1737731347365 28.9187731347365
29.5157731347365 13.205226865263505 6.178226865263504
23.5117731347365 30.980773134736502 11.9057731347365
25.6987731347365 19.2347731347365 6.2062268652634955
16.958226865263505 23.3082268652635 8.621226865263502
20.2767731347365 0.8797731347364994 10.7802268652635
31.9153194042095 25.698680595790506 32.1653194042095
8.568226865263505 25.941226865263495 26.724773134736502
0.9087731347365011 9.110773134736501 19.967680595790497
15.5537731347365 1.8372268652634958 21.4392268652635
28.1597731347365 14.732226865263499 7.731680595790493
29.285226865263503 2.4106805957904953 11.066226865263495
27.1437731347365 4.854226865263499 14.977680595790503
13.9437731347365 1.8307731347365 31.0757731347365
10.8507731347365 28.8887731347365 29.4507731347365
23.357319404209502 15.431134326317505 8.8247731347365
24.1693194042095 15.952226865263505 11.3847731347365
30.617226865263497 20.150226865263498 16.8437731347365
31.501680595790504 23.5547731347365 14.219319404209504
28.2327731347365 21.598226865263506 14.307319404209498
6.017680595790495 2.4502268652634953 19.527226865263493
4.284680595790505 9.479319404209502 21.4932268652635
2.685680595790501 14.843226865263496 23.2087731347365
4.4146805957905 28.184680595790496 18.4152268652635
31.0957731347365 2.7706805957904947 28.407226865263503
25.9177731347365 13.2147731347365 24.369226865263506
20.3353194042095 30.4477731347365 5.6792268652634945
0.42522686526350384 29.780226865263494 29.410226865263503
17.4703194042095 20.8717731347365 16.7037731347365
9.937226865263504 11.0152268652635 22.4277731347365
11.5667731347365 14.822226865263495 23.604226865263506
1.546773134736501 2.8752268652634996 12.834226865263496
25.4753194042095 20.273226865263503 1.2572268652634975
31.0533194042095 12.7077731347365 14.9937731347365
0.7297731347365009 31.0497731347365 16.2072268652635
13.337773134736501 23.314773134736498 21.3217731347365
17.1772268652635 26.398226865263503 9.360226865263499
16.840226865263496 22.8247731347365 7.309773134736501
4.675226865263504 12.2667731347365 12.779226865263503
25.689773134736498 0.6536805957905045 31.268226865263493
22.090319404209502 13.0417731347365 17.2057731347365
5.801226865263494 27.2567731347365 9.334773134736501
21.173226865263494 3.844773134736501 22.6657731347365
3.7767731347364997 2.5182268652635003 4.3752268652635
3.296680595790505 19.7102268652635 29.2807731347365
21.1077731347365 30.238773134736498 1.2932268652634988
11.401319404209499 9.8867731347365 23.7717731347365
28.1957731347365 21.8232268652635 10.176226865263494
18.8917731347365 19.4537731347365 4.402226865263501
26.541226865263503 23.4357731347365 27.1297731347365
5.239226865263497 7.402226865263501 20.9416805957905
3.374680595790494 25.998226865263497 3.8427731347365004
15.8527731347365 28.2867731347365 24.0642268652635
12.382226865263497 23.2607731347365 25.0377731347365
23.628773134736498 29.5917731347365 29.6997731347365
7.011773134736501 12.574226865263505 5.466226865263501
12.147226865263498 14.691680595790501 27.2067731347365
4.373226865263497 20.652226865263493 22.6183194042095
29.292226865263494 14.909226865263498 2.725226865263501
18.541226865263503 31.899226865263493 15.174773134736501
29.0822268652635 5.408773134736501 23.093226865263496
7.8757731347365 10.3322268652635 17.4727731347365
6.431680595790496 9.5427731347365 29.503319404209503
6.4427731347365 14.466773134736501 28.7833194042095
12.241773134736501 30.6857731347365 2.0097731347365
12.9097731347365 11.846680595790502 1.891680595790504
18.360226865263506 16.2837731347365 14.935226865263495
6.049773134736501 24.119226865263506 29.7527731347365
15.348319404209501 7.4292268652634945 1.280773134736501
6.3347731347364995 17.7927731347365 3.695680595790506
10.656226865263498 1.0602268652634947 26.059773134736503
30.5677731347365 24.247773134736498 21.3123194042095
26.2167731347365 27.524226865263493 4.951680595790492
10.4082268652635 9.462773134736501 0.9722268652635009
2.7057731347365 21.486773134736502 12.110773134736501
19.262226865263493 16.4877731347365 25.851226865263506
19.7477731347365 16.8017731347365 27.2433194042095
8.5607731347365 24.9847731347365 27.898319404209502
30.1857731347365 15.238680595790498 17.9193194042095
13.2682268652635 0.6722268652635037 12.458226865263498
21.1946805957905 4.169226865263504 23.492226865263497
8.5397731347365 28.052865673682504 14.2027731347365
20.0537731347365 31.439773134736498 8.558680595790506
7.7757731347365 28.5987731347365 0.5322268652635032
12.8527731347365 29.336226865263505 18.5492268652635
27.2463194042095 9.277319404209504 25.0317731347365
3.499680595790494 11.484226865263501 16.7817731347365
26.967226865263505 18.9497731347365 28.5267731347365
6.354680595790498 3.3396805957904974 23.8172268652635
11.936319404209502 30.828226865263495 1.519226865263498
12.1252268652635 29.6592268652635 9.609226865263501
15.0792268652635 1.0912268652635007 17.824226865263505
4.4467731347365 24.1427731347365 4.3557731347365
23.520226865263503 28.628226865263507 23.216680595790507
17.111226865263497 16.8472268652635 23.944226865263495
28.3493194042095 32.1363194042095 17.9467731347365
26.794773134736502 26.090319404209502 9.807319404209498
8.575226865263495 5.013319404209501 23.099773134736502
13.791226865263503 24.4587731347365 16.351680595790498
5.6257731347365 24.0167731347365 18.422226865263504
11.895226865263503 31.218226865263496 19.003226865263507
28.791773134736502 30.3142268652635 7.063680595790501
4.392226865263503 22.128319404209503 23.0877731347365
29.3987731347365 0.14722686526349804 10.4117731347365
14.693226865263505 20.055319404209502 29.208226865263505
26.664226865263494 32.1037731347365 7.7372268652635015
2.3072268652634946 0.5616805957905058 19.582865673682505
10.2772268652635 17.483226865263497 22.6647731347365
6.0007731347365 28.5837731347365 27.746226865263502
12.6337731347365 6.108226865263497 27.8367731347365
17.3907731347365 15.5852268652635 23.553773134736502
23.729226865263506 25.6122268652635 20.6217731347365
19.4737731347365 1.4962268652635018 11.0427731347365
21.647680595790504 4.739226865263497 17.7627731347365
1.256680595790499 6.995773134736501 9.7442268652635
16.724226865263496 0.47322686526349855 21.6577731347365
21.019226865263498 31.063226865263495 16.0917731347365
26.4457731347365 22.788226865263503 21.5552268652635
11.9607731347365 0.1716805957905052 3.361680595790503
1.1432268652635003 23.6083194042095 31.4157731347365
9.906226865263498 22.0313194042095 15.612319404209504
3.4302268652634993 6.050226865263504 1.277773134736501
31.5917731347365 13.5612268652635 18.7596805957905
14.584226865263496 1.8202268652634999 31.1993194042095
6.8697731347365 21.506226865263493 8.961680595790497
28.483773134736502 30.244773134736498 9.350226865263501
31.352773134736502 27.047773134736502 20.5877731347365
0.5057731347365007 24.8423194042095 15.5002268652635
22.233226865263497 4.5967731347365 4.479226865263499
20.5817731347365 29.1233194042095 29.672773134736502
1.0027731347365005 14.7712268652635 19.926226865263494
13.3352268652635 6.016226865263498 20.7656805957905
8.1676805957905 14.706773134736501 27.6587731347365
5.605319404209499 8.2412268652635 25.721226865263496
25.3382268652635 6.4877731347365 13.0217731347365
6.237134326317516 21.8713194042095 9.2682268652635
4.3557731347365 23.510226865263498 18.066226865263495
3.8996805957904996 5.831680595790502 2.3112268652634995
17.4453194042095 31.5973194042095 8.377680595790494
30.221319404209503 20.2282268652635 23.7967731347365
16.849773134736502 19.8777731347365 0.47168059579050237
18.055680595790506 17.059226865263504 15.751773134736501
31.2197731347365 22.5607731347365 5.165773134736501
17.1562268652635 8.9177731347365 8.269226865263498
10.9607731347365 32.0567731347365 3.947226865263495
9.5117731347365 11.763226865263498 25.571226865263505
16.0757731347365 6.3172268652635 1.3752268652634996
19.4332268652635 7.164226865263501 27.5577731347365
20.3607731347365 4.998226865263497 10.508680595790494
8.476226865263499 14.5107731347365 28.863773134736498
24.686773134736498 23.044226865263504 5.783226865263501
6.838773134736501 8.9007731347365 17.998226865263497
22.3262268652635 11.427773134736501 14.010680595790504
6.504134326317512 31.5547731347365 30.2187731347365
3.465226865263496 26.4767731347365 18.2252268652635
10.0246805957905 27.264226865263502 6.267680595790495
13.4807731347365 15.2827731347365 27.4027731347365
3.546773134736501 23.8823194042095 30.477226865263496
28.989680595790503 25.4007731347365 10.029226865263503
28.6517731347365 3.1187731347365 13.077226865263505
29.364773134736502 13.9632268652635 2.7192268652635008
12.538680595790495 1.5822268652635003 14.8327731347365
25.3897731347365 25.437226865263504 28.7877731347365
4.358680595790503 9.963680595790493 31.4007731347365
23.258226865263502 25.7102268652635 31.683773134736498
1.6907731347365011 4.9476805957905015 11.7712268652635
11.1127731347365 29.6457731347365 17.5937731347365
29.8317731347365 4.9067731347365005 13.009319404209503
3.1353194042095005 0.966773134736501 30.3673194042095
3.117226865263497 4.438226865263495 14.436319404209502
27.084319404209502 21.739226865263497 12.8527731347365
21.3453194042095 22.4902268652635 6.733226865263497
25.345226865263506 11.677680595790505 18.6092268652635
25.4332268652635 1.1762268652634944 3.6652268652634987
25.8967731347365 17.5367731347365 7.6117731347365005
4.132680595790504 11.446680595790497 22.1457731347365
23.982134326317507 26.550865673682495 19.5967731347365
31.3257731347365 6.126226865263497 25.755226865263502
7.057680595790501 9.800226865263504 18.2513194042095
20.075226865263495 11.913226865263503 12.705226865263505
0.5822268652635003 18.622319404209502 7.5647731347365
23.5307731347365 0.014773134736500992 25.498773134736503
13.029226865263503 2.341773134736501 18.830226865263505
4.118226865263502 2.790680595790505 8.382680595790504
1.3056805957905055 23.0897731347365 3.1466805957904995
31.7037731347365 23.3767731347365 21.1937731347365
3.2157731347364997 3.2776805957904998 9.998226865263497
21.8726805957905 8.2307731347365 26.4223194042095
28.2117731347365 2.214226865263498 10.8437731347365
9.689680595790506 4.908773134736501 23.8987731347365
9.2866805957905 22.485226865263506 14.8147731347365
3.2852268652635033 30.0177731347365 24.3082268652635
10.542226865263501 7.593680595790502 28.434773134736503
29.144865673682503 15.526226865263503 0.14268059579049464
31.4177731347365 9.1387731347365 16.535226865263503
29.2197731347365 14.111226865263497 13.9512268652635
31.657319404209503 17.491226865263506 10.938226865263495
28.549319404209502 15.385226865263498 6.332680595790492
18.976226865263506 29.889319404209502 24.0287731347365
10.7472268652635 25.6557731347365 4.886226865263502
9.040680595790505 11.5276805957905 24.0857731347365
20.775226865263498 4.0182268652635 22.6197731347365
25.884865673682498 24.244226865263506 2.822226865263495
28.061773134736498 25.854226865263506 3.309773134736501
23.6467731347365 21.480226865263496 14.251226865263497
11.653680595790505 8.834226865263496 24.229226865263506
18.423226865263494 9.878680595790499 29.469680595790507
15.0367731347365 13.334226865263496 7.617226865263497
17.642134326317503 29.427773134736498 30.625773134736498
10.1372268652635 8.022226865263498 0.8386805957904926
26.3453194042095 8.778226865263498 18.235319404209502
7.806226865263504 24.5156805957905 18.8777731347365
22.4433194042095 0.7552268652635021 31.769226865263498
16.7347731347365 6.5682268652635045 1.126773134736501
11.3757731347365 26.629226865263497 22.650226865263498
31.4687731347365 20.5677731347365 29.6363194042095
12.434773134736501 25.646226865263493 10.162226865263499
31.241773134736498 3.505226865263502 7.3722268652634995
3.4777731347365 22.885226865263498 3.9716805957905024
1.3826805957905037 21.5987731347365 26.9403194042095
7.096226865263496 9.877226865263502 12.254226865263497
20.880226865263502 7.185226865263495 18.6263194042095
20.4717731347365 17.0187731347365 26.8052268652635
11.9417731347365 18.286226865263494 13.642773134736501
3.232773134736501 24.8947731347365 25.4767731347365
1.593226865263496 20.7827731347365 26.866226865263506
24.227226865263496 20.6092268652635 22.9122268652635
25.6952268652635 0.2872268652634986 2.6602268652635033
23.1947731347365 16.3022268652635 10.465226865263496
14.9587731347365 28.699680595790497 6.2127731347365
24.8917731347365 31.9647731347365 1.9932268652635017
16.4392268652635 19.529226865263503 15.3307731347365
19.117680595790503 1.617226865263497 11.681226865263504
23.104226865263506 23.2927731347365 14.923226865263501
26.736226865263497 4.9733194042095015 3.8587731347365004
31.3867731347365 11.379226865263497 31.7553194042095
26.4242268652635 26.4842268652635 9.7977731347365
24.450319404209502 8.373226865263497 10.482226865263499
7.823680595790506 31.988773134736498 14.8692268652635
19.711680595790497 26.8407731347365 22.7527731347365
0.7572268652634975 13.384680595790499 9.4777731347365
16.2037731347365 25.840226865263496 12.251226865263497
16.788773134736502 12.778680595790505 18.317773134736502
18.1032268652635 17.392226865263503 11.048226865263501
11.785134326317504 14.159226865263498 27.4173194042095
20.0473194042095 23.4177731347365 19.676226865263494
4.4306805957905055 13.687680595790496 16.6887731347365
27.6643194042095 25.1843194042095 3.400226865263498
25.873773134736503 26.8292268652635 24.1457731347365
18.559226865263504 31.560226865263495 17.324226865263505
25.330226865263505 19.7067731347365 0.3087731347364997
21.2787731347365 26.644680595790504 22.1067731347365
22.319226865263495 27.8717731347365 6.321226865263505
9.4572268652635 12.796773134736501 11.1697731347365
16.7553194042095 24.9873194042095 31.7667731347365
6.4482268652635 30.4507731347365 2.1567731347365005
15.488773134736501 29.1533194042095 5.495773134736501
0.9937731347365002 29.889319404209502 5.0997731347365
28.675773134736502 8.464226865263498 8.9297731347365
13.609319404209504 29.6217731347365 27.428773134736502
2.5412268652635035 10.787680595790505 31.744226865263506
9.706773134736501 2.0417731347365002 12.233226865263497
17.4737731347365 11.335319404209503 3.2842268652634985
19.5372268652635 1.7292268652634988 27.937226865263504
16.893226865263493 27.0083194042095 24.3733194042095
26.9477731347365 21.4467731347365 28.4722268652635
16.4722268652635 10.257226865263497 22.5727731347365
8.7442268652635 5.993680595790494 17.5853194042095
27.3292268652635 6.1586805957905 22.4327731347365
24.0373194042095 15.9207731347365 13.129226865263497
26.7633194042095 3.6832268652634994 22.705226865263505
16.6407731347365 24.827226865263505 19.9957731347365
18.661226865263494 2.732226865263499 28.9963194042095
22.4987731347365 14.937226865263504 1.8667731347364995
16.4127731347365 30.89868059579051 4.850680595790493
5.951319404209503 3.9862268652634967 16.541773134736502
28.9127731347365 13.776226865263503 22.0057731347365
22.3987731347365 15.6582268652635 31.059226865263504
29.544773134736502 3.559226865263504 18.5443194042095
0.1522268652635006 18.668680595790505 7.962226865263496
10.156226865263498 16.8537731347365 21.788226865263503
4.9176805957905 29.0923194042095 8.114226865263497
7.194226865263495 23.7837731347365 18.2547731347365
9.927680595790505 9.077226865263505 0.07168059579049668
19.9812268652635 8.0577731347365 14.861680595790503
13.485319404209502 20.571226865263505 0.1972268652634952
28.8453194042095 4.934773134736501 20.4507731347365
8.053226865263504 19.059226865263504 27.8977731347365
24.910773134736502 27.806773134736503 3.2896805957905
3.5752268652634953 14.1757731347365 5.1592268652634985
11.053226865263504 17.131226865263493 18.8863194042095
8.3662268652635 14.177773134736501 20.6467731347365
12.629226865263497 30.804226865263495 3.523226865263503
2.963773134736501 30.818226865263505 12.423226865263501
5.4917731347364995 18.2387731347365 21.3417731347365
23.020319404209502 21.8047731347365 4.879773134736499
28.191226865263495 5.404226865263503 23.4627731347365
17.1648656736825 25.2807731347365 25.002865673682507
22.874226865263502 11.228680595790493 30.142226865263503
29.5792268652635 30.6487731347365 13.873226865263497
31.422865673682495 26.0317731347365 10.4392268652635
31.947226865263495 10.0396805957905 0.6957731347365002
5.1432268652635 18.7897731347365 12.990680595790494
11.657226865263503 25.476680595790498 23.380226865263502
31.1957731347365 21.613226865263506 30.5687731347365
6.8787731347365 5.9422268652635 28.5067731347365
30.515226865263493 20.9487731347365 31.1173194042095
3.3352268652635004 12.335680595790492 3.8427731347365004
3.597226865263501 27.4443194042095 18.3637731347365
16.7657731347365 23.994319404209502 31.808773134736498
11.450226865263495 7.7817731347365005 28.4893194042095
12.412226865263499 16.014226865263502 24.7147731347365
2.603226865263501 13.438226865263495 2.5006805957904987
28.4812268652635 15.9647731347365 20.700226865263495
22.0432268652635 5.6067731347365 3.9772268652634963
6.048226865263501 26.1413194042095 21.4703194042095
11.793319404209502 22.097680595790507 30.9217731347365
0.6086805957905028 9.477680595790503 6.080226865263505
5.767226865263503 23.363226865263506 15.8442268652635
26.9907731347365 28.2597731347365 29.1353194042095
10.0937731347365 25.9637731347365 24.5797731347365
29.026319404209502 24.3588656736825 22.718226865263496
27.556226865263504 21.4597731347365 13.448680595790506
20.108226865263497 13.2622268652635 11.046773134736501
16.4967731347365 1.728226865263501 1.3507731347364995
14.5837731347365 10.456773134736501 0.15122686526350293
13.7237731347365 19.0747731347365 25.2357731347365
1.3752268652634996 3.2682268652635003 3.6792268652634945
21.6577731347365 10.2686805957905 19.554226865263495
21.6693194042095 28.550865673682495 5.870680595790503
9.824226865263505 18.325319404209502 11.174773134736501
28.061319404209502 21.369226865263506 27.8537731347365
18.7753194042095 17.011226865263502 10.897226865263498
20.860226865263506 26.5822268652635 23.0882268652635
21.5402268652635 7.255226865263502 1.5332268652635008
23.7717731347365 15.892680595790509 8.7987731347365
10.9512268652635 0.7746805957904996 25.2117731347365
5.9037731347365 24.3383194042095 17.6237731347365
18.9547731347365 9.068226865263505 28.4467731347365
8.3936805957905 7.393680595790499 18.5147731347365
26.0673194042095 30.617773134736503 28.2593194042095
26.8277731347365 29.0103194042095 23.387226865263493
30.364773134736502 12.204680595790492 18.132865673682502
24.7137731347365 17.7812268652635 7.633773134736501
18.150226865263498 16.1757731347365 14.285226865263503
7.867226865263497 29.3277731347365 1.4332268652634994
4.3237731347365 20.9717731347365 8.763226865263498
10.809134326317505 13.351680595790498 28.467226865263505
24.669226865263504 5.68513432631751 11.3243194042095
29.745773134736503 12.895319404209499 23.3517731347365
31.996226865263502 31.6343194042095 22.0927731347365
16.994226865263506 28.9572268652635 25.7163194042095
15.8917731347365 22.9493194042095 19.5947731347365
24.8567731347365 26.0732268652635 11.065226865263504
5.0702268652635 19.032226865263503 1.0677731347365
11.0367731347365 6.7857731347365 2.5042268652634974
8.208226865263498 13.862226865263501 31.708226865263505
27.8943194042095 7.688680595790501 28.4242268652635
18.175226865263504 9.7382268652635 1.5792268652635002
15.4327731347365 28.6437731347365 4.984226865263501
12.316226865263495 21.5167731347365 7.9907731347365
31.5847731347365 23.7127731347365 26.189773134736498
17.6597731347365 12.3247731347365 18.158226865263494
16.8137731347365 29.9547731347365 12.9977731347365
22.705226865263505 3.1357731347364997 5.2842268652634985
24.305319404209502 6.902226865263501 26.6357731347365
29.3082268652635 9.5302268652635 26.816226865263495
23.2162268652635 22.7693194042095 6.745680595790503
3.5086805957904943 7.537226865263499 15.727226865263496
1.8102268652634947 7.386680595790494 9.5537731347365
22.7467731347365 16.027319404209504 11.2947731347365
1.4776805957905026 13.1247731347365 8.3632268652635
19.4327731347365 9.2947731347365 2.059226865263504
13.346680595790502 18.261226865263502 8.9667731347365
13.123226865263497 0.3672268652634969 18.442773134736502
23.617680595790503 28.0283194042095 23.187226865263504
27.0317731347365 9.8747731347365 18.6797731347365
19.3747731347365 13.899319404209503 30.8627731347365
12.837773134736501 1.1422268652635026 13.8747731347365
1.029226865263503 17.8756805957905 7.444773134736501
19.6973194042095 13.164226865263501 9.985773134736501
24.3172268652635 5.7622268652635 19.3157731347365
9.3417731347365 0.9382268652634949 3.5206805957904947
4.847226865263501 20.0567731347365 12.5672268652635
32.178226865263504 14.182226865263495 19.272134326317513
8.789226865263501 29.244773134736498 0.4512268652635001
5.2682268652635 8.450226865263495 23.968226865263496
11.414226865263501 27.922773134736502 22.679226865263495
21.9953194042095 27.6427731347365 11.6027731347365
14.7287731347365 25.5372268652635 12.319226865263495
4.392773134736501 12.3412268652635 7.4307731347365
1.4691343263175156 9.141226865263498 4.880226865263502
16.2127731347365 26.8286805957905 8.4067731347365
5.6037731347365 16.997226865263507 7.285226865263503
23.4717731347365 29.2937731347365 7.022226865263498
13.3427731347365 23.875226865263507 7.6087731347365
20.1712268652635 23.6233194042095 1.4662268652635007
26.7197731347365 23.619226865263506 0.6892268652634996
28.6407731347365 16.270226865263503 13.1557731347365
17.0687731347365 11.6342268652635 17.651226865263503
27.5637731347365 23.459226865263496 15.0797731347365
3.7502268652634996 24.996680595790508 24.9602268652635
25.775226865263498 14.5507731347365 12.659226865263498
26.849226865263496 31.860226865263506 2.2582268652635022
19.3747731347365 8.1797731347365 27.8863194042095
31.593319404209502 10.065226865263504 1.584680595790502
28.7222268652635 17.5372268652635 27.3847731347365
7.6592268652634985 19.471226865263496 22.345226865263506
20.4387731347365 15.6802268652635 18.092226865263505
6.8787731347365 21.581319404209502 29.057226865263495
11.1432268652635 4.120680595790503 6.924226865263499
22.447226865263495 21.647226865263498 14.1697731347365
10.739226865263497 6.6247731347365 1.2652268652635001
18.669773134736502 31.9332268652635 13.4737731347365
28.449226865263505 27.025226865263498 25.0147731347365
23.3493194042095 13.8003194042095 1.7262268652634987
0.468226865263496 25.795226865263494 10.1927731347365
10.5822268652635 10.974226865263496 23.897226865263498
8.8537731347365 23.9163194042095 31.9817731347365
8.834226865263496 28.1577731347365 31.627226865263502
27.802773134736498 17.772226865263498 20.685226865263495
3.2002268652634953 8.709773134736501 8.8647731347365
14.690226865263504 2.3812268652635 6.5107731347365
27.1617731347365 23.9717731347365 16.4302268652635
5.1462268652635 24.8337731347365 30.371226865263502
5.4627731347365 20.105773134736502 22.612680595790508
30.4313194042095 22.2217731347365 30.560226865263495
22.425226865263504 28.3202268652635 17.4692268652635
8.618226865263502 5.892773134736501 24.0457731347365
14.4302268652635 11.038226865263503 31.7433194042095
7.4086805957905 17.9827731347365 1.2032268652634954
20.2902268652635 27.307226865263495 15.705226865263505
8.937226865263504 27.187773134736503 6.6227731347365
16.0847731347365 15.94386567368251 9.117226865263497
3.1457731347364994 10.2956805957905 17.764226865263502
10.235773134736501 25.7237731347365 25.498773134736503
28.0303194042095 32.0587731347365 9.921773134736501
5.871226865263502 24.389319404209502 22.4602268652635
18.2393194042095 25.2282268652635 26.0607731347365
2.8166805957905012 1.3082268652634994 30.055680595790506
5.4707731347365005 10.9447731347365 12.8757731347365
11.642773134736501 15.487319404209504 18.9997731347365
18.8172268652635 21.5762268652635 16.171319404209502
26.301226865263494 7.090226865263496 5.699226865263505
14.270226865263503 6.049226865263499 28.635226865263498
18.5637731347365 31.589226865263505 16.2197731347365
17.4662268652635 25.9667731347365 26.867226865263497
30.9557731347365 3.7372268652635015 7.250680595790499
19.754226865263497 25.4477731347365 30.0717731347365
22.8687731347365 15.8902268652635 30.6952268652635
1.1092268652635013 3.8662268652634992 14.6357731347365
24.6693194042095 15.2913194042095 11.870773134736499
0.13922686526350248 17.743680595790508 24.1712268652635
10.7887731347365 9.6522268652635 16.2237731347365
26.9017731347365 26.8213194042095 29.077226865263505
3.2337731347365004 6.239226865263497 1.834680595790502
8.0732268652635 28.5227731347365 8.401773134736501
16.291773134736502 9.3662268652635 8.764773134736501
27.107226865263506 5.127226865263502 22.358773134736502
10.2087731347365 26.477226865263496 4.4267731347365
20.647226865263498 25.592226865263505 14.7367731347365
2.096226865263496 1.6682268652634988 31.8187731347365
26.550226865263504 26.0582268652635 3.802226865263499
5.178226865263504 18.1137731347365 1.5652268652635044
10.800226865263504 1.1177731347365008 23.553773134736502
20.470226865263506 4.4036805957905045 23.581226865263496
19.9457731347365 4.3722268652634995 17.2926805957905
16.323680595790506 17.369226865263506 22.386226865263502
7.7157731347365 30.264319404209502 20.602226865263496
0.9222268652635037 5.257680595790504 27.0827731347365
19.3857731347365 8.193226865263505 7.392773134736501
1.5586805957905057 7.8027731347364995 10.2887731347365
31.117773134736503 1.2997731347365011 26.762226865263493
7.613773134736499 3.381680595790499 16.380226865263502
28.0153194042095 15.0077731347365 19.3653194042095
27.7163194042095 30.666773134736502 22.9517731347365
19.3307731347365 5.776319404209499 28.7627731347365
14.467226865263498 14.4362268652635 26.930680595790506
20.198680595790506 25.992773134736503 3.9576805957904924
23.0607731347365 14.341680595790493 21.9983194042095
11.2887731347365 5.187773134736501 7.687226865263504
21.8237731347365 31.823680595790506 25.958226865263505
19.0307731347365 20.9727731347365 16.412680595790505
20.5197731347365 18.7747731347365 30.315773134736503
14.978226865263501 4.535226865263503 11.477226865263496
26.789226865263494 7.741680595790498 31.248226865263497
0.07422686526350475 27.5717731347365 27.7437731347365
20.7103194042095 20.1862268652635 21.940680595790496
24.919773134736502 25.233773134736502 28.9037731347365
1.0967731347365 9.4116805957905 27.648319404209502
7.080680595790497 27.6063194042095 10.110680595790498
13.072226865263495 22.0883194042095 0.9002268652634982
26.185226865263495 23.8397731347365 28.2177731347365
12.687226865263504 1.1452268652635027 23.304226865263495
26.0342268652635 9.373226865263497 21.5103194042095
14.197319404209498 8.308773134736501 15.582680595790492
26.607226865263506 21.050773134736502 18.397226865263498
31.0623194042095 12.781226865263498 9.5477731347365
21.297226865263504 27.6127731347365 8.125319404209502
28.111226865263497 24.0177731347365 3.482226865263499
8.6406805957905 20.8243194042095 28.836226865263505
1.749226865263502 18.9177731347365 28.389226865263502
24.529319404209502 4.381680595790499 28.5307731347365
9.4517731347365 26.750226865263507 31.5877731347365
26.2627731347365 26.2853194042095 16.686680595790506
