17.2067731347365 9.8327731347365 18.285226865263503
12.148773134736501 11.2012268652635 11.522319404209501
30.6317731347365 27.507226865263497 11.101226865263499
17.4277731347365 3.1892268652634996 12.3067731347365
2.9487731347365003 28.5333194042095 5.7117731347365
13.443680595790497 5.426226865263494 13.3657731347365
25.1182268652635 6.783226865263501 20.6867731347365
27.3273194042095 10.651773134736501 15.230226865263496
29.3142268652635 0.7387731347364994 11.5697731347365
26.3377731347365 10.6947731347365 17.5547731347365
23.0317731347365 17.1777731347365 18.8263194042095
30.614773134736502 10.514773134736501 23.5717731347365
12.452226865263505 14.110226865263499 4.718680595790502
2.6636805957904954 15.482226865263499 5.185226865263495
8.778680595790505 25.233773134736502 28.910773134736502
4.738680595790498 10.102226865263496 18.3726805957905
16.5227731347365 27.3382268652635 14.1827731347365
13.901680595790495 11.2217731347365 10.5092268652635
0.7372268652635015 3.8987731347364996 7.794226865263504
26.0942268652635 11.641680595790504 28.3547731347365
30.0727731347365 28.5036805957905 27.7252268652635
3.6933194042095003 13.023226865263503 4.121226865263502
30.3577731347365 28.714865673682496 13.8117731347365
31.836226865263505 28.569226865263495 29.2158656736825
4.601773134736501 1.9092268652634985 13.662680595790505
29.592226865263505 12.787226865263499 19.2477731347365
3.127680595790494 31.175680595790496 19.0283194042095
32.1313194042095 16.991226865263506 26.5967731347365
26.6357731347365 27.7137731347365 19.4797731347365
25.6537731347365 23.5727731347365 0.8582268652634966
14.380319404209498 15.964319404209501 28.831319404209502
14.9947731347365 2.5602268652634947 26.0123194042095
15.1462268652635 20.6977731347365 27.8003194042095
8.272680595790504 31.485319404209502 27.017319404209502
12.6117731347365 9.8872268652635 10.774773134736499
19.427319404209502 1.5112268652635024 16.6622268652635
27.244773134736498 3.624226865263502 1.1842268652635042
9.2382268652635 23.2192268652635 29.000319404209502
10.5197731347365 11.7627731347365 12.6637731347365
23.9437731347365 21.6652268652635 9.936680595790506
19.087226865263496 24.2187731347365 12.019226865263498
0.7732268652635028 14.419226865263504 31.241773134736498
3.273226865263503 27.3307731347365 20.7932268652635
4.644226865263498 12.7437731347365 15.1387731347365
24.7547731347365 14.667226865263501 1.6606805957904953
14.734226865263501 21.8347731347365 10.5077731347365
24.5937731347365 2.3662268652634992 30.401134326317504
27.367773134736503 29.589680595790497 9.078226865263495
28.891680595790504 26.8967731347365 20.2907731347365
26.0707731347365 11.3557731347365 21.081226865263496
0.05668059579049611 4.192319404209503 21.2042268652635
2.3437731347365 22.280226865263494 0.4022268652635006
31.497226865263507 29.3022268652635 15.031319404209501
24.408226865263494 14.3487731347365 11.2577731347365
1.4017731347364997 21.312226865263504 8.252226865263502
9.576319404209503 14.706226865263496 10.7397731347365
20.110226865263506 23.905226865263494 10.9207731347365
9.339226865263498 11.761226865263502 20.3287731347365
3.961226865263498 28.9923194042095 18.0637731347365
16.7937731347365 24.4463194042095 28.9123194042095
14.5797731347365 21.7393194042095 18.250226865263507
13.442680595790506 20.477226865263496 1.1336805957904943
30.349773134736502 27.9692268652635 13.0212268652635
16.9302268652635 27.694226865263495 20.4242268652635
19.8112268652635 18.0852268652635 6.18813432631751
17.3292268652635 11.7592268652635 17.0432268652635
20.314773134736498 22.6832268652635 26.086680595790497
14.2072268652635 6.1227731347365 9.217226865263498
19.2637731347365 2.9942268652634993 19.6897731347365
5.992226865263497 7.026226865263503 7.781319404209501
1.2287731347364996 7.691773134736501 20.617226865263497
16.098226865263506 21.736773134736502 23.4083194042095
10.750319404209502 15.6127731347365 6.5286805957905045
2.8232268652635 1.5652268652635044 15.874319404209498
13.569226865263495 10.9557731347365 20.1747731347365
4.155773134736501 12.716319404209504 4.885226865263498
3.522319404209501 15.1737731347365 20.3207731347365
24.8847731347365 1.6892268652634996 2.5697731347365007
26.111680595790503 26.4147731347365 31.7163194042095
13.214226865263498 11.1277731347365 19.690226865263504
26.642226865263503 14.043319404209502 8.676226865263494
23.6927731347365 2.448319404209503 29.375319404209502
5.2842268652634985 17.973226865263506 10.798319404209504
6.777773134736501 24.869773134736498 5.360226865263499
21.8763194042095 18.9583194042095 2.027773134736501
23.019226865263498 10.200680595790502 20.568226865263505
29.9827731347365 19.0576805957905 26.497773134736498
7.805226865263499 7.5342268652634985 8.135226865263498
20.943226865263505 18.6317731347365 1.1732268652635014
12.2532268652635 18.5297731347365 11.4557731347365
21.557226865263495 5.288226865263503 10.9662268652635
27.735226865263506 26.2547731347365 31.255865673682507
15.725226865263501 19.0153194042095 4.286226865263501
24.815773134736503 10.694226865263495 1.9452268652634999
17.6737731347365 25.4512268652635 3.7756805957905044
1.2397731347365006 25.2867731347365 29.7163194042095
12.830226865263505 19.5822268652635 18.8367731347365
29.5638656736825 16.411226865263494 14.832680595790492
24.390865673682498 21.0732268652635 0.9942268652634993
16.881773134736502 26.8177731347365 14.8697731347365
31.1247731347365 14.4927731347365 6.494226865263499
25.705226865263505 2.5852268652635004 4.0996805957905025
8.6462268652635 17.0597731347365 2.7237731347365006
24.751773134736503 5.1197731347365 15.9257731347365
11.7363194042095 26.663226865263503 25.064319404209503
20.7317731347365 0.346319404209499 24.8553194042095
13.8037731347365 2.684226865263504 27.1447731347365
21.8382268652635 29.3232268652635 17.317773134736502
24.590226865263496 8.956319404209498 15.4107731347365
24.232319404209502 21.066226865263495 2.3322268652635003
23.7257731347365 13.8142268652635 27.186680595790506
5.703773134736501 28.7147731347365 15.447226865263495
24.068226865263505 20.52668059579051 17.630226865263502
1.661226865263501 30.712226865263496 5.9362268652634995
26.595226865263506 25.2377731347365 30.7297731347365
25.223680595790498 12.7917731347365 26.622773134736498
10.843226865263496 12.215680595790502 26.712319404209502
31.1717731347365 16.1877731347365 5.004226865263497
7.7562268652635 3.6217731347365003 16.8443194042095
11.4272268652635 2.9646805957904974 6.775226865263498
26.264226865263502 1.155773134736501 8.487226865263501
5.4837731347365 10.922226865263504 18.7222268652635
23.889226865263502 14.5957731347365 2.0712268652635046
12.5857731347365 3.6387731347364998 14.0707731347365
31.5347731347365 31.632226865263497 27.400226865263498
12.001226865263497 1.6567731347365005 6.434773134736501
10.490680595790494 12.6252268652635 14.160226865263503
23.9307731347365 21.7477731347365 22.5017731347365
10.517773134736501 8.413226865263503 26.4422268652635
3.7502268652634996 30.5193194042095 9.060680595790501
9.235319404209502 17.998226865263497 0.7917731347365002
24.378226865263507 20.300773134736502 24.041773134736502
22.694226865263495 8.839226865263498 31.3187731347365
7.941773134736501 24.1377731347365 29.3447731347365
29.5067731347365 27.6712268652635 18.9697731347365
2.019680595790504 12.964226865263498 13.8303194042095
8.477226865263496 0.3562268652635012 31.4313194042095
25.6862268652635 19.9867731347365 23.6892268652635
27.164226865263494 12.166680595790496 27.247226865263507
26.8793194042095 22.3382268652635 15.5387731347365
10.2117731347365 6.032226865263503 0.36522686526350157
23.980226865263496 8.0227731347365 14.226226865263499
15.6777731347365 19.012226865263493 31.5027731347365
3.8592268652635013 25.3173194042095 19.9957731347365
4.710773134736501 19.251226865263497 0.23022686526349645
21.4347731347365 1.3312268652634955 12.8527731347365
25.730773134736502 14.0577731347365 27.782226865263503
12.9127731347365 0.40268059579049975 10.433680595790506
1.6176805957905032 27.8357731347365 27.0852268652635
6.732226865263499 26.1383194042095 3.9662268652635007
21.683319404209502 19.7617731347365 16.1977731347365
11.1187731347365 1.3856805957905038 6.465226865263496
1.0777731347364998 10.5767731347365 31.1487731347365
25.5367731347365 22.9367731347365 18.678680595790496
1.2736805957904949 6.448680595790506 10.419226865263504
20.2937731347365 25.927319404209502 9.068226865263505
10.6467731347365 16.5077731347365 23.314773134736498
3.1677731347364997 21.9302268652635 0.5332268652635008
0.09222686526349833 15.1797731347365 4.538680595790495
11.3627731347365 10.338773134736499 7.6417731347365
10.575773134736501 27.5667731347365 0.3632268652634991
25.3017731347365 1.5102268652634976 19.8897731347365
21.8673194042095 26.0937731347365 2.9742268652634962
6.4547731347365005 31.1723194042095 27.6947731347365
17.609680595790508 23.867226865263497 10.194319404209498
18.870226865263497 23.4267731347365 3.826680595790492
9.537319404209502 5.133226865263502 31.302773134736498
3.9026805957904998 14.613680595790498 20.7957731347365
15.4757731347365 15.3082268652635 28.3687731347365
21.967680595790497 20.04186567368251 26.4667731347365
2.6952268652635 18.2177731347365 18.339226865263505
18.6152268652635 27.0977731347365 20.690226865263504
2.1987731347365003 22.6707731347365 1.8386805957904926
25.626226865263497 6.4572268652635 14.3277731347365
5.274773134736501 9.1877731347365 23.920226865263494
0.9602268652635004 11.421226865263499 2.708680595790497
13.6797731347365 11.2072268652635 11.3467731347365
9.5677731347365 11.9467731347365 10.0357731347365
8.9877731347365 12.4457731347365 12.2652268652635
7.590680595790502 6.6392268652635025 8.6327731347365
30.7932268652635 4.562226865263504 18.729226865263506
27.5737731347365 7.5267731347365 15.5027731347365
3.9176805957905003 23.7757731347365 24.1183194042095
15.376773134736501 11.087226865263496 5.154134326317504
26.5282268652635 5.959226865263496 21.175226865263504
28.1343194042095 20.0257731347365 30.855226865263496
3.8232268652635 31.209319404209502 9.413226865263503
5.611226865263497 16.394680595790504 11.001226865263497
16.581319404209502 25.4283194042095 13.5267731347365
2.9327731347365003 26.2663194042095 0.833226865263498
20.0516805957905 21.3833194042095 29.3383194042095
9.343226865263496 5.293680595790505 29.4763194042095
0.6802268652634993 10.819226865263495 24.021226865263493
11.456680595790502 20.166226865263503 6.248773134736501
25.364773134736502 11.1367731347365 20.9877731347365
20.6892268652635 15.0702268652635 2.6487731347364996
4.9777731347365 10.717226865263498 31.3827731347365
4.128680595790499 1.0157731347365004 25.144226865263498
5.2132268652635005 7.549680595790505 29.7223194042095
30.1427731347365 15.876773134736501 11.6357731347365
0.1716805957905052 28.329865673682505 13.128680595790499
3.2302268652634964 21.6673194042095 16.8547731347365
4.3697731347365 26.596319404209503 20.4422268652635
25.7342268652635 25.4783194042095 6.0122268652635
5.6617731347364995 9.4206805957905 7.465680595790502
26.901226865263503 19.079680595790506 24.379226865263497
20.613226865263506 26.7727731347365 8.847319404209504
6.684773134736501 11.980226865263496 6.891680595790504
30.733773134736502 0.06977313473650071 19.129226865263497
3.418773134736501 31.981680595790507 15.3787731347365
18.4433194042095 6.4967731347365 19.678226865263504
27.8052268652635 8.0732268652635 18.2407731347365
22.528865673682503 15.053226865263504 27.568680595790497
17.3167731347365 7.088588056844486 19.8597731347365
23.9377731347365 17.4033194042095 2.6526805957904998
21.4207731347365 14.4482268652635 28.8292268652635
31.5177731347365 17.917226865263494 30.1347731347365
31.637226865263493 28.587226865263496 28.8777731347365
30.1603194042095 23.0727731347365 12.0707731347365
23.258865673682507 9.93513432631751 32.04168059579051
24.4233194042095 6.1357731347365 11.693226865263505
18.9737731347365 10.049773134736501 23.558680595790506
2.3587731347365004 4.0306805957905 1.901680595790495
31.8987731347365 21.983773134736502 14.150226865263498
10.7877731347365 4.913226865263503 29.135226865263498
5.2622268652635 13.636319404209498 12.962680595790502
15.4026805957905 17.4947731347365 30.5707731347365
22.009226865263493 25.9482268652635 19.2437731347365
2.6537731347365003 30.5757731347365 7.758773134736501
14.151680595790495 9.056773134736499 19.2447731347365
10.666226865263503 12.053226865263504 28.4517731347365
17.325226865263495 32.1713194042095 7.5457731347365
5.403226865263498 9.1787731347365 5.6952268652635
30.689773134736498 17.9122268652635 10.4587731347365
29.764226865263502 19.5912268652635 31.8412268652635
19.338680595790507 6.525680595790504 30.205226865263505
11.455226865263505 28.5517731347365 24.3237731347365
13.386226865263502 32.106865673682506 23.843680595790502
8.159319404209501 29.8226805957905 28.3167731347365
21.467226865263505 1.799226865263499 5.123226865263497
24.2907731347365 29.1677731347365 8.8142268652635
25.9173194042095 21.358226865263497 15.0216805957905
12.6757731347365 4.527773134736501 12.328226865263495
6.697226865263495 11.261226865263502 5.2697731347365
9.6927731347365 18.904226865263503 1.0052268652635021
14.8067731347365 10.8527731347365 6.370226865263497
2.3226805957905015 7.503680595790499 29.939773134736498
18.025226865263498 21.788773134736502 23.5657731347365
11.200773134736501 25.392226865263503 27.9147731347365
23.6303194042095 26.744319404209502 5.854773134736501
27.8703194042095 17.2287731347365 19.892226865263503
4.3202268652635 6.2767731347365 31.2393194042095
13.761226865263502 16.9387731347365 20.3657731347365
20.5732268652635 31.108226865263497 25.651226865263503
19.2597731347365 0.3397731347365003 6.3507731347364995
8.854680595790498 14.6587731347365 12.310226865263495
18.5847731347365 30.657319404209503 10.820319404209503
14.568226865263505 10.898773134736501 4.949226865263505
18.8317731347365 16.810226865263495 24.152226865263493
17.1742268652635 21.3687731347365 9.435226865263495
25.4483194042095 18.6653194042095 23.718680595790502
2.476680595790498 1.1012268652634987 22.8167731347365
16.4362268652635 4.1937731347364995 14.5582268652635
16.859680595790508 24.050226865263504 27.785773134736502
29.3627731347365 5.022226865263498 27.2967731347365
8.0126805957905 3.7622268652635 8.584773134736501
1.4342268652635042 9.6783194042095 14.135226865263498
21.806226865263504 25.744226865263506 18.217226865263505
20.9177731347365 22.0247731347365 27.4163194042095
2.8422268652634983 19.6592268652635 10.356680595790493
24.1183194042095 11.2917731347365 2.9817731347364997
3.4006805957905044 25.5147731347365 12.4197731347365
16.340226865263496 24.730773134736502 12.169226865263504
5.6447731347365 0.4932268652635017 30.7497731347365
14.778226865263498 23.462319404209502 5.732773134736501
4.850226865263501 28.2287731347365 17.9103194042095
23.2957731347365 6.8747731347365 12.4737731347365
28.639226865263502 10.112226865263501 18.1617731347365
22.4117731347365 12.922680595790496 21.7557731347365
13.6323194042095 14.4957731347365 5.594226865263501
21.8457731347365 8.049680595790505 5.281226865263498
29.683773134736498 18.333226865263505 3.2987731347365
2.6262268652634972 10.891226865263498 30.4446805957905
20.4573194042095 1.3456805957904976 11.5306805957905
25.041226865263503 14.0507731347365 7.4166805957904955
4.637680595790499 31.7207731347365 28.3957731347365
1.8292268652635002 14.097680595790493 0.06577313473649937
13.0672268652635 2.543226865263499 22.0657731347365
13.537680595790505 6.2106805957904925 2.1037731347364996
20.689773134736498 9.6217731347365 5.287773134736501
26.6466805957905 4.107226865263499 23.3223194042095
10.168680595790505 12.575226865263495 1.267773134736501
16.4537731347365 25.934773134736503 31.992773134736503
6.302226865263499 18.8697731347365 26.142226865263503
8.302319404209502 16.639226865263502 24.9477731347365
9.7682268652635 11.9912268652635 30.0893194042095
23.1817731347365 4.155226865263501 12.7207731347365
22.4187731347365 21.9797731347365 24.4153194042095
1.2287731347364996 5.687680595790496 7.299226865263499
1.1602268652635033 10.281226865263498 1.2467731347365003
12.467226865263498 2.6726805957904958 20.923226865263494
21.8682268652635 8.806773134736499 5.107680595790498
1.5212268652635004 3.6552268652635007 1.7077731347365006
11.9837731347365 18.883226865263502 18.6652268652635
23.172226865263504 26.8597731347365 17.4277731347365
31.1873194042095 0.48177313473649974 18.1617731347365
7.1087731347365 18.6373194042095 0.08877313473649906
8.7297731347365 1.209680595790502 13.346226865263496
17.9927731347365 6.0447731347365 15.749226865263502
18.626226865263497 7.0067731347365 4.198680595790506
7.211134326317506 22.020226865263503 12.767226865263503
1.594773134736501 27.7053194042095 29.138680595790504
3.2827731347365 3.2582268652635022 25.3437731347365
23.0167731347365 2.5496805957905053 5.106680595790493
21.1647731347365 15.749226865263502 9.1277731347365
10.758680595790494 15.8307731347365 5.201680595790492
18.2527731347365 31.9517731347365 6.328680595790502
4.014773134736501 0.1592268652634985 8.449226865263505
25.0013194042095 28.437226865263504 22.4037731347365
15.0517731347365 31.456680595790502 29.845226865263506
24.134226865263493 27.541773134736502 14.4727731347365
7.2287731347365 21.2342268652635 12.855226865263496
9.9717731347365 23.599226865263496 0.6122268652635015
5.4337731347365 23.832680595790507 8.414226865263501
12.693680595790497 0.6512268652635029 30.4163194042095
5.874226865263502 31.517319404209502 9.408319404209504
14.375680595790499 18.838680595790507 11.1873194042095
11.347319404209504 30.029865673682508 19.1383194042095
2.5456805957905004 7.176680595790501 18.8743194042095
27.318226865263505 19.739226865263497 13.5947731347365
21.8442268652635 23.1862268652635 12.172680595790496
27.316226865263495 12.395319404209499 16.8007731347365
28.3457731347365 10.804226865263495 3.3426805957904975
21.8567731347365 20.6043194042095 9.5087731347365
20.584226865263496 19.4117731347365 20.597680595790507
14.478134326317516 11.2287731347365 12.214226865263498
24.8317731347365 10.121680595790494 2.753680595790499
23.306680595790496 30.7147731347365 18.4997731347365
20.0407731347365 5.411226865263501 7.559773134736501
0.9712268652634961 20.6217731347365 14.4337731347365
27.9427731347365 23.4152268652635 13.680773134736501
25.989680595790503 6.022134326317513 22.8507731347365
3.449680595790497 0.03322686526350083 21.5882268652635
6.6496805957905 29.9783194042095 30.522226865263498
19.395319404209502 10.1522268652635 7.578680595790502
28.5863194042095 12.050226865263504 16.610226865263506
12.537226865263499 25.8227731347365 15.5702268652635
26.765226865263493 26.3687731347365 5.6887731347365005
4.523680595790495 0.2742268652635005 16.4147731347365
14.4997731347365 15.045226865263501 4.306773134736501
12.1402268652635 3.1722268652635037 21.797773134736502
6.447773134736501 28.2017731347365 28.307226865263495
3.9416805957905012 20.0967731347365 6.868226865263502
27.9997731347365 6.030773134736501 25.250226865263507
18.0847731347365 28.491773134736498 20.262226865263493
26.5237731347365 6.116226865263499 23.3287731347365
27.0827731347365 28.086226865263505 31.7787731347365
20.0587731347365 18.7253194042095 20.617226865263497
29.9827731347365 16.4707731347365 6.3177731347365
13.2102268652635 31.5193194042095 14.4332268652635
2.7562268652635 23.2812268652635 25.255226865263502
23.8407731347365 12.1727731347365 3.2972268652635037
3.0212268652635004 11.563680595790501 14.014226865263502
9.550680595790496 10.150226865263498 21.7547731347365
12.751680595790504 6.7857731347365 9.9722268652635
5.780773134736501 10.2012268652635 23.544773134736502
29.2013194042095 19.4413194042095 31.3803194042095
5.202680595790497 31.173226865263494 19.425680595790496
18.152226865263493 12.3187731347365 4.412226865263499
14.4326805957905 5.021773134736501 15.108226865263497
30.3777731347365 1.934773134736501 0.33377313473650005
21.733773134736502 21.7723194042095 29.0306805957905
17.5947731347365 17.5972268652635 28.782865673682508
7.424773134736501 25.7072268652635 7.516226865263498
22.467226865263505 7.9427731347365 0.3507731347364995
6.1357731347365 1.0786805957905017 23.3637731347365
1.096319404209499 17.751226865263497 20.6002268652635
2.023226865263503 29.1527731347365 21.831226865263496
20.502226865263502 16.3247731347365 22.8407731347365
31.8137731347365 21.3157731347365 17.6757731347365
19.5522268652635 1.1092268652635013 5.114773134736501
31.5413194042095 22.634226865263493 17.870134326317512
3.5777731347365 13.696680595790497 5.658226865263501
26.077226865263505 27.003773134736498 11.671773134736501
23.4512268652635 26.3682268652635 15.7427731347365
22.8697731347365 28.825226865263495 9.254226865263497
10.6017731347365 26.7273194042095 30.4847731347365
5.3507731347364995 2.216773134736501 30.6477731347365
16.160773134736502 26.605773134736502 3.2547731347364994
31.2927731347365 5.566226865263495 28.730773134736502
19.927680595790505 30.6357731347365 12.7393194042095
2.4546805957904922 30.542226865263494 6.3907731347365
10.412226865263499 12.0607731347365 32.1082268652635
12.318226865263505 17.958226865263505 16.973680595790498
4.996226865263502 12.3183194042095 28.182226865263495
5.052226865263499 29.988773134736498 7.368226865263502
11.069680595790501 29.4447731347365 17.172680595790496
25.064773134736498 15.9863194042095 8.491773134736501
23.979226865263506 6.6637731347365 16.904226865263503
1.2562268652634998 13.0186805957905 29.183773134736498
22.014226865263502 8.4972268652635 31.9093194042095
7.828773134736501 19.233226865263497 17.381773134736502
2.5312268652634984 30.4092268652635 3.589226865263498
5.212226865263496 18.491319404209502 31.2197731347365
1.397226865263498 15.761680595790509 5.363680595790498
13.482226865263499 19.044226865263504 30.814773134736498
30.4017731347365 14.81313432631751 19.316226865263495
9.549226865263499 30.7737731347365 16.9437731347365
2.9887731347364994 0.7842268652634985 17.4037731347365
12.151226865263503 29.247226865263507 27.035773134736502
20.1477731347365 1.7237731347365006 31.121226865263502
5.346226865263496 7.199226865263505 28.88368059579051
26.738226865263506 24.2177731347365 12.4482268652635
30.0927731347365 3.6127731347365 28.927773134736498
25.8558656736825 26.4032268652635 5.9432268652635045
20.2867731347365 12.7192268652635 29.7902268652635
26.426226865263494 8.8527731347365 8.996226865263502
25.387226865263493 13.4097731347365 11.114226865263497
2.9166805957904955 21.880226865263502 30.2807731347365
0.6096805957904934 15.842680595790497 25.9663194042095
8.668226865263499 23.6023194042095 28.3843194042095
27.221226865263496 19.6436805957905 6.182226865263495
4.327226865263505 24.5277731347365 22.608226865263497
18.0817731347365 5.9657731347365 18.7177731347365
0.032680595790495204 30.744226865263506 29.587226865263496
12.7502268652635 28.824680595790497 26.834226865263496
3.716773134736501 18.2157731347365 24.8207731347365
22.5137731347365 9.397319404209501 21.009226865263493
8.795226865263501 1.1677731347364997 2.2756805957905044
13.961680595790497 4.0387731347365 3.0076805957905037
13.888226865263498 10.028226865263498 20.4933194042095
19.726226865263506 3.7237731347365006 16.4583194042095
16.3277731347365 26.491319404209502 1.4306805957905055
23.6627731347365 19.0987731347365 17.1152268652635
28.306773134736503 9.0852268652635 17.02968059579051
16.480226865263496 5.739226865263497 25.980226865263496
5.880226865263502 28.517226865263503 26.6747731347365
24.851226865263506 6.55958805684449 12.174226865263499
29.8613194042095 32.0777731347365 21.7372268652635
21.6652268652635 7.8722268652634995 5.984226865263501
1.1336805957904943 22.0287731347365 13.225680595790493
12.121226865263502 4.1967731347365 1.776680595790495
21.587319404209502 6.999680595790494 23.2523194042095
26.786226865263494 1.7077731347365006 10.0677731347365
25.5777731347365 2.995773134736501 21.9872268652635
9.552680595790505 12.976226865263499 10.175226865263504
15.192680595790506 11.1892268652635 0.43368059579050566
18.6763194042095 16.071226865263505 30.004680595790504
1.8182268652635045 8.974680595790502 30.105773134736502
13.8722268652635 20.4267731347365 6.485773134736501
10.611226865263497 16.500226865263507 24.9263194042095
27.477773134736502 14.420226865263501 25.873226865263497
12.938319404209498 1.1972268652634952 8.736226865263497
3.610226865263499 24.8817731347365 24.4817731347365
7.0702268652635 23.1387731347365 4.026226865263503
7.208226865263498 12.6522268652635 23.347680595790507
23.4782268652635 11.7772268652635 2.5472268652635037
13.4082268652635 11.672226865263504 13.278226865263498
21.62768059579051 14.556680595790496 14.5702268652635
25.976226865263506 2.4592268652634957 30.2317731347365
4.304680595790501 21.2983194042095 7.023680595790495
10.6797731347365 2.114680595790503 20.6537731347365
20.766226865263498 13.5037731347365 30.858773134736502
23.178773134736502 1.6487731347364996 1.2506805957904987
9.487680595790493 19.5642268652635 29.441226865263495
14.9527731347365 26.545226865263494 23.2577731347365
31.400226865263498 1.678680595790496 0.29177313473650024
24.3477731347365 4.9467731347365 12.406680595790505
12.924680595790505 5.9306805957905055 14.144680595790504
28.4182268652635 8.822680595790501 8.4487731347365
14.7757731347365 13.7472268652635 19.6333194042095
17.381773134736502 28.3183194042095 18.0612268652635
0.8407731347364997 26.414226865263494 28.524226865263493
29.721319404209503 17.254680595790504 29.0957731347365
9.270226865263503 10.316226865263495 5.557226865263495
31.1413194042095 26.6523194042095 19.2102268652635
20.9987731347365 22.3652268652635 24.4627731347365
21.985319404209502 1.4476805957905015 17.7427731347365
12.3437731347365 26.437773134736503 22.663773134736502
4.111226865263497 1.2361343263175115 17.696680595790497
16.3057731347365 10.963773134736499 31.2872268652635
11.120773134736499 18.876226865263497 28.9937731347365
24.7527731347365 28.5467731347365 1.0227731347365001
4.901226865263503 20.271226865263493 19.5307731347365
29.3547731347365 14.437773134736501 11.4077731347365
30.8583194042095 2.6986805957905062 0.4137731347365001
16.9122268652635 10.031226865263498 25.0917731347365
24.9037731347365 22.5817731347365 25.5762268652635
16.1797731347365 26.4733194042095 6.8812268652635
9.625319404209502 17.974226865263496 1.6042268652634988
14.9627731347365 9.0582268652635 26.7067731347365
13.596680595790502 4.6892268652635 20.3367731347365
6.414134326317509 32.0777731347365 27.3307731347365
19.567773134736502 23.607319404209502 11.389226865263502
31.5243194042095 7.313680595790501 20.9967731347365
14.845226865263498 7.863226865263499 25.315226865263504
6.6247731347365 23.361773134736502 21.9263194042095
23.9602268652635 31.4182268652635 0.49722686526349946
7.985773134736501 24.0342268652635 6.347680595790493
19.3307731347365 14.488773134736501 26.057226865263495
10.735226865263499 7.3112268652634995 26.1647731347365
14.094680595790493 20.255226865263502 11.119773134736501
21.3333194042095 15.1192268652635 21.9032268652635
16.5983194042095 4.060680595790501 24.7553194042095
8.1753194042095 3.029226865263503 12.7686805957905
25.236773134736502 19.571226865263505 1.918680595790505
15.456773134736501 27.1592268652635 31.9537731347365
30.5547731347365 5.426680595790501 27.5857731347365
8.075680595790502 18.5397731347365 30.4117731347365
0.34822686526349855 11.431773134736499 15.1627731347365
4.1837731347365 26.177319404209502 13.911226865263501
26.881226865263493 19.0187731347365 23.349773134736502
5.856680595790493 29.2097731347365 15.1192268652635
30.308773134736498 16.321226865263505 13.7977731347365
18.5337731347365 20.2827731347365 12.194226865263495
18.0587731347365 4.7956805957905 8.6862268652635
31.9667731347365 8.0417731347365 29.3307731347365
7.421680595790505 0.7706805957904947 2.657226865263503
25.2653194042095 14.8647731347365 8.5977731347365
0.28068059579049986 4.7527731347365005 17.1047731347365
17.539226865263494 5.053773134736501 25.5393194042095
12.413226865263503 17.4813194042095 18.4173194042095
10.272319404209501 7.962226865263496 31.91368059579051
16.446680595790497 3.5457731347365 14.1057731347365
24.658226865263494 2.8557731347365003 10.815226865263504
15.105226865263496 17.050680595790496 29.959680595790502
19.732226865263506 22.7992268652635 12.728319404209504
24.8467731347365 8.006134326317508 24.3232268652635
14.4427731347365 25.6062268652635 23.830226865263505
0.17668059579050066 5.0122268652635 18.982226865263506
27.608226865263497 12.482773134736501 1.7117731347365002
31.3507731347365 7.619226865263499 8.724680595790502
21.4817731347365 4.078226865263495 17.8136805957905
18.4422268652635 11.683773134736501 18.4437731347365
20.8183194042095 12.7832268652635 10.661319404209504
28.775680595790504 10.4847731347365 25.613773134736498
11.3747731347365 31.7437731347365 22.5672268652635
19.4557731347365 16.6867731347365 21.0087731347365
11.5347731347365 17.6742268652635 18.780226865263494
19.426226865263494 16.1603194042095 21.5717731347365
17.7107731347365 24.6497731347365 10.110226865263499
15.796226865263499 9.5957731347365 15.309773134736501
15.953773134736501 24.2416805957905 11.716319404209504
6.030226865263501 29.0317731347365 25.887226865263493
9.6187731347365 25.9572268652635 19.1592268652635
24.3427731347365 13.261226865263502 8.491773134736501
4.842226865263498 19.3837731347365 32.051226865263494
30.105226865263496 16.745680595790503 20.657226865263503
0.6312268652634998 21.385680595790504 8.430773134736501
7.261226865263502 11.2787731347365 30.2697731347365
24.4327731347365 1.8852268652634976 29.5967731347365
2.6522268652635006 10.5027731347365 0.45768059579049236
22.7647731347365 22.503226865263507 23.6407731347365
26.9587731347365 20.4542268652635 16.4637731347365
8.211226865263498 25.2547731347365 19.0907731347365
12.184226865263504 25.470680595790498 14.7222268652635
8.353319404209504 15.8837731347365 3.793226865263499
9.1587731347365 13.4337731347365 30.1687731347365
3.029226865263503 9.910680595790495 28.958226865263505
14.497680595790499 18.268226865263493 29.599773134736502
30.411226865263494 2.570680595790506 30.6058656736825
12.7587731347365 11.9542268652635 0.928226865263504
7.087680595790502 25.3813194042095 17.7596805957905
15.8557731347365 11.2077731347365 17.401226865263503
7.345226865263498 29.9293194042095 25.7807731347365
29.4193194042095 0.7032268652634954 20.1742268652635
16.988226865263506 18.3047731347365 29.8112268652635
3.2472268652634995 7.4512268652635 19.8737731347365
16.5757731347365 9.245226865263497 27.2813194042095
23.7147731347365 7.702226865263505 15.572319404209498
31.8233194042095 20.929226865263495 21.5967731347365
16.0847731347365 16.257226865263497 24.8387731347365
24.446680595790497 19.3777731347365 0.8672268652634969
3.0032268652634997 30.6023194042095 17.7102268652635
32.080319404209504 0.789226865263501 31.38668059579051
0.11922686526349935 29.8017731347365 4.662226865263499
25.3267731347365 19.842680595790497 25.127226865263502
3.3422268652634983 19.6827731347365 17.9047731347365
20.846680595790502 9.603680595790493 22.013226865263498
28.752226865263502 11.231680595790493 27.529226865263503
25.724226865263496 11.5647731347365 17.1633194042095
15.163226865263503 3.402773134736501 26.6487731347365
0.8986805957904949 20.443680595790497 12.025226865263498
11.872680595790499 11.3297731347365 0.02822686526349827
5.8877731347365 23.172773134736502 22.4752268652635
32.1373194042095 28.7597731347365 29.513226865263498
13.290319404209502 17.419773134736502 27.072226865263495
28.697226865263495 20.8513194042095 2.8872268652635
12.5477731347365 32.01522686526349 31.0913194042095
25.4842268652635 2.1436805957904994 21.652226865263493
11.1627731347365 20.6397731347365 11.3757731347365
4.051680595790501 21.752226865263502 31.5333194042095
13.9912268652635 20.5917731347365 5.294680595790496
20.688226865263495 31.4567731347365 25.5857731347365
24.5137731347365 29.2402268652635 9.4972268652635
24.0943194042095 0.3952268652635027 19.622226865263507
19.3537731347365 23.3177731347365 10.703226865263495
13.563319404209498 3.8477731347364994 26.143226865263493
8.5007731347365 16.518226865263493 7.2017731347365
27.6772268652635 5.005773134736501 22.9887731347365
29.012226865263493 19.9482268652635 1.3207731347365002
9.148226865263503 9.519226865263498 12.1432268652635
21.0423194042095 6.9166805957904955 6.401226865263503
9.4207731347365 7.330226865263505 27.035226865263503
23.0013194042095 14.156226865263498 3.6257731347365
11.691319404209498 12.663226865263503 0.2462268652635018
16.7297731347365 30.7843194042095 25.2087731347365
30.5547731347365 0.6797731347365001 21.0457731347365
23.069226865263495 16.3887731347365 2.7227731347364994
18.6687731347365 19.1183194042095 20.7797731347365
18.3737731347365 23.53568059579051 30.751680595790504
13.5747731347365 18.3322268652635 20.3442268652635
2.8236805957905062 20.0467731347365 7.8722268652634995
19.4387731347365 23.9812268652635 19.89268059579051
0.18277313473650025 28.6567731347365 25.8713194042095
26.875226865263507 7.2927731347365 19.4027731347365
22.628226865263507 26.8543194042095 18.024226865263493
27.489226865263497 29.2992268652635 1.4903194042094974
20.328226865263495 1.3262268652635 13.3022268652635
1.1466805957904995 15.837226865263496 21.0237731347365
21.559226865263504 30.5137731347365 11.741680595790498
11.9427731347365 4.6377731347365 19.9447731347365
5.234226865263501 11.1507731347365 30.6933194042095
3.982319404209502 31.815773134736503 20.2167731347365
27.661226865263494 29.187226865263504 1.080226865263505
9.7507731347365 26.4113194042095 31.9403194042095
7.981134326317516 0.45377313473650105 12.797226865263504
7.055319404209502 18.0373194042095 21.6556805957905
30.2007731347365 2.1382268652634977 0.44222686526349975
6.6037731347365 0.6572268652635032 27.8597731347365
9.336226865263498 16.3267731347365 26.253226865263507
12.6187731347365 31.584226865263496 14.290680595790505
29.7237731347365 4.751226865263497 29.479226865263506
29.8977731347365 31.872773134736498 20.208226865263505
19.584680595790502 9.087226865263496 7.748226865263497
25.894226865263498 13.4912268652635 8.3382268652635
1.5237731347364996 6.385680595790504 14.2072268652635
8.791680595790496 20.3707731347365 11.2847731347365
1.7092268652634957 28.8473194042095 5.405773134736501
15.7297731347365 6.2207731347365005 27.3837731347365
6.9837731347365 19.6327731347365 16.5657731347365
30.075226865263495 29.3907731347365 28.3207731347365
9.484680595790493 31.805319404209502 3.5552268652634993
22.596226865263496 12.5417731347365 29.311773134736498
16.217226865263505 18.7747731347365 26.2557731347365
20.318226865263505 0.8537731347364996 32.0393194042095
5.190226865263504 9.509319404209503 22.992226865263497
24.1503194042095 0.8357731347365007 4.129680595790504
11.946226865263505 1.0702268652634999 6.787226865263499
20.457680595790507 14.291680595790496 9.3797731347365
19.7377731347365 22.227773134736502 10.2802268652635
23.000773134736498 26.0893194042095 18.260226865263498
21.6533194042095 22.5852268652635 10.053680595790496
15.376226865263497 23.9667731347365 23.4233194042095
8.356680595790493 4.520773134736499 8.465680595790502
4.0517731347365 19.326680595790506 0.7762268652635029
10.007226865263497 10.636226865263502 4.236680595790503
23.3652268652635 4.2217731347365 11.304226865263495
9.754680595790504 14.486226865263497 13.643319404209503
6.412773134736501 5.428773134736501 7.769226865263498
30.2623194042095 7.3902268652635 10.571226865263505
27.0342268652635 1.401680595790495 10.7042268652635
28.133226865263502 10.417226865263501 16.851226865263506
24.533226865263494 3.5306805957905 9.714226865263498
6.160226865263503 31.602773134736502 26.366226865263506
17.2377731347365 28.0767731347365 30.5432268652635
6.089226865263498 26.8322268652635 20.937865673682495
17.651226865263503 5.4542268652635 13.7477731347365
20.6556805957905 12.4267731347365 31.241226865263506
0.9472268652634952 23.3537731347365 4.966226865263501
28.2817731347365 2.1382268652634977 4.486226865263497
2.887680595790499 8.609226865263501 18.5207731347365
3.8377731347364996 24.7342268652635 11.796226865263499
27.9557731347365 23.8973194042095 12.8996805957905
7.0342268652634985 26.8077731347365 21.854226865263506
1.2161343263175155 22.4357731347365 14.197319404209498
29.521226865263493 31.538773134736502 18.1077731347365
31.9087731347365 29.945680595790506 30.0867731347365
16.2102268652635 19.496226865263502 4.160134326317504
18.9507731347365 22.6407731347365 30.1627731347365
5.965226865263496 15.7627731347365 1.3152268652635044
8.8337731347365 30.806773134736503 8.5777731347365
29.8517731347365 23.7347731347365 25.9187731347365
21.465226865263496 17.3787731347365 20.2012268652635
22.5337731347365 17.6523194042095 3.5617731347365
13.325226865263495 25.999226865263502 7.474226865263496
5.525680595790504 3.969773134736501 4.030226865263501
3.802319404209502 25.745226865263497 21.655226865263494
0.5217731347365007 26.8903194042095 32.0732268652635
17.5183194042095 4.118680595790494 25.8203194042095
9.687226865263504 23.9377731347365 28.9687731347365
11.186773134736502 9.7597731347365 11.040226865263499
8.032226865263503 25.3173194042095 1.9897731347365006
31.6987731347365 22.5677731347365 10.723226865263499
17.056226865263504 28.8987731347365 17.609680595790508
24.872773134736498 3.9762268652634987 19.906680595790505
5.388226865263498 26.180773134736498 17.4392268652635
20.1063194042095 0.5552268652634993 14.186680595790506
24.657319404209503 30.348226865263506 30.236773134736502
8.979226865263499 5.5847731347364995 20.864773134736502
25.5337731347365 12.9477731347365 7.1387731347365
16.066226865263495 22.566226865263495 23.206226865263496
6.9977731347365 17.523226865263503 32.155226865263494
13.022226865263498 23.547773134736502 15.8722268652635
25.1337731347365 21.6293194042095 31.492773134736503
4.185680595790501 9.2397731347365 6.083680595790497
2.688226865263495 3.3057731347364996 4.479773134736501
31.215680595790502 21.337226865263496 11.8183194042095
1.8557731347365003 23.4513194042095 27.0977731347365
16.447226865263495 2.200773134736501 19.599680595790502
1.8787731347365 25.0167731347365 1.1217731347365003
18.6873194042095 6.210773134736501 4.517226865263503
31.2937731347365 6.960773134736501 4.965226865263496
9.456773134736501 10.617773134736499 20.7207731347365
14.509319404209503 16.908226865263494 30.8997731347365
24.9967731347365 21.3142268652635 2.1602268652635033
20.129134326317512 14.175226865263504 8.575226865263495
8.420226865263501 7.433226865263499 1.9257731347365006
18.742680595790503 25.355226865263496 13.084226865263496
29.1982268652635 5.047226865263504 1.806226865263504
15.2637731347365 25.988319404209502 5.802226865263499
19.8682268652635 5.5447731347365 5.470226865263498
13.572319404209498 19.837226865263496 4.5122268652635
26.7777731347365 12.050226865263504 0.4106805957904953
23.8713194042095 29.608773134736502 23.431226865263504
17.270865673682508 12.431680595790496 18.0423194042095
21.1952268652635 8.6766805957905 23.0457731347365
10.0167731347365 31.122319404209502 19.9147731347365
11.892680595790495 20.830226865263505 5.132680595790504
30.3437731347365 0.4052268652635007 23.0763194042095
5.966226865263501 0.04631940420950542 0.7027731347364998
17.845226865263506 3.687773134736501 19.0353194042095
14.7017731347365 9.9697731347365 25.2577731347365
18.9033194042095 0.7866805957905001 5.9757731347364995
4.937773134736501 21.1152268652635 24.1196805957905
12.479226865263499 12.632226865263497 0.4846805957904934
30.2137731347365 3.8703194042095 0.4272268652634992
19.401226865263503 11.1892268652635 22.125226865263507
5.8367731347365 1.8442268652635008 30.065773134736503
29.5762268652635 2.681680595790496 13.4137731347365
31.023226865263503 6.6646805957905 27.5073194042095
3.035134326317504 11.171773134736501 28.5693194042095
3.1462268652635004 18.5407731347365 20.655226865263494
30.2127731347365 7.7867731347364995 9.929319404209497
30.4797731347365 23.016226865263498 23.0402268652635
3.5486805957905005 11.7222268652635 28.3177731347365
9.612226865263501 5.8312268652634955 22.9953194042095
24.6113194042095 25.203226865263495 6.0317731347365005
31.4476805957905 29.2603194042095 11.843319404209499
8.292226865263501 12.2427731347365 10.9737731347365
21.4977731347365 13.6857731347365 14.040226865263499
0.5966805957905024 21.6957731347365 6.6252268652635
11.013226865263498 9.755226865263502 7.540773134736501
6.896773134736501 6.2017731347365 23.6003194042095
3.8412268652635007 2.6822268652634946 16.210319404209503
21.2162268652635 2.6166805957904984 23.8637731347365
18.182226865263495 12.3112268652635 30.977773134736502
30.6927731347365 16.4752268652635 16.1327731347365
15.032226865263503 4.464226865263498 26.0337731347365
17.2173194042095 31.503226865263507 8.5788656736825
21.412680595790505 9.569226865263495 23.9343194042095
6.3217731347365 19.6687731347365 24.809680595790496
23.407226865263503 7.614226865263497 21.864226865263497
1.299226865263499 24.843226865263496 4.7247731347365
3.0097731347365 28.2297731347365 18.1997731347365
4.060680595790501 20.2686805957905 8.708226865263498
24.963680595790507 3.2397731347365006 9.747773134736502
8.833680595790497 20.7807731347365 13.422226865263504
2.4876805957904935 16.6807731347365 25.0663194042095
8.3767731347365 5.142680595790495 20.583680595790497
27.521226865263493 9.8797731347365 8.898773134736501
27.5433194042095 6.590680595790502 23.9847731347365
8.2132268652635 21.680680595790506 10.936773134736502
11.130226865263502 27.803773134736502 11.4362268652635
0.3723194042095024 3.871226865263502 23.044773134736502
14.032319404209499 12.7947731347365 5.583680595790497
12.446680595790497 7.258226865263502 0.9917731347364995
28.9033194042095 4.949680595790497 17.8077731347365
21.2417731347365 9.198680595790506 20.2012268652635
7.5792268652635 27.791773134736502 13.174773134736501
31.2137731347365 30.852226865263496 29.7113194042095
0.6007731347364995 29.5147731347365 26.7727731347365
19.1577731347365 15.892319404209498 25.0317731347365
31.358773134736502 21.3877731347365 22.3927731347365
1.0426805957905003 21.2627731347365 17.845226865263506
8.1203194042095 10.0302268652635 28.1507731347365
8.840773134736502 24.308773134736498 26.870773134736503
2.6737731347365 22.5577731347365 26.5913194042095
3.1602268652635033 31.423226865263494 11.745226865263497
6.3027731347364995 8.8357731347365 26.0367731347365
28.773319404209502 20.503226865263507 30.8457731347365
16.989226865263497 22.902226865263493 18.8207731347365
29.3967731347365 19.9723194042095 26.9607731347365
1.2086805957904971 21.477773134736502 8.7517731347365
2.8832268652635022 23.5683194042095 23.909680595790505
9.783319404209504 7.405226865263501 15.897319404209501
20.462319404209502 3.0316805957905046 16.7397731347365
0.1221343263175072 21.7357731347365 10.1937731347365
25.357226865263506 28.2587731347365 5.671226865263499
17.598226865263506 31.2943194042095 5.5062268652635
12.304226865263495 18.125319404209502 28.763226865263498
22.803226865263504 22.1267731347365 8.360773134736501
26.700226865263495 21.684680595790496 15.685319404209498
6.552680595790505 26.5907731347365 20.6237731347365
29.783226865263494 1.1232268652634971 19.8223194042095
8.661226865263501 13.8172268652635 2.5217731347365007
23.190226865263504 20.5317731347365 8.314680595790506
19.260226865263498 23.4387731347365 28.5702268652635
17.605773134736502 2.0402268652634987 18.9377731347365
4.345226865263498 7.657680595790495 13.267680595790495
30.7787731347365 16.613865673682497 30.2737731347365
31.4293194042095 3.729773134736501 2.8556805957905027
13.249680595790494 4.1097731347365 16.2687731347365
11.386680595790494 11.1307731347365 20.2813194042095
11.212226865263496 9.8382268652635 25.9003194042095
7.731226865263501 30.186319404209502 23.9027731347365
13.853226865263501 5.544226865263504 11.3782268652635
16.402226865263493 17.435226865263495 17.019226865263498
13.5637731347365 26.5257731347365 25.6217731347365
20.4127731347365 23.044226865263504 27.785773134736502
26.239226865263497 14.038226865263503 7.456680595790502
22.8803194042095 2.7582268652635022 20.0627731347365
27.047226865263504 3.552226865263499 20.9842268652635
5.0306805957905 31.413226865263503 16.3412268652635
20.2143194042095 30.901226865263503 1.4452268652634999
11.7167731347365 9.420226865263501 9.4147731347365
30.3917731347365 32.120773134736496 14.4677731347365
12.7107731347365 22.2327731347365 31.7867731347365
18.2317731347365 15.0127731347365 28.000773134736498
18.0113194042095 11.1667731347365 19.3327731347365
22.2387731347365 1.0842268652634957 28.425773134736502
6.227680595790503 10.645773134736501 5.930134326317514
29.2333194042095 26.887226865263493 18.2697731347365
30.4613194042095 30.346226865263496 26.595226865263506
16.976680595790498 27.6827731347365 0.26768059579049464
24.635226865263498 24.304226865263495 23.0443194042095
23.504226865263497 28.6463194042095 15.2787731347365
12.4052268652635 15.784319404209501 5.9177731347365
29.066226865263495 15.7742268652635 10.785226865263503
9.058773134736501 17.660226865263503 4.238226865263499
8.555680595790506 3.7477731347364998 17.417226865263494
28.290680595790505 17.8223194042095 11.9257731347365
15.5306805957905 10.431680595790496 11.212226865263496
24.026226865263503 23.917226865263494 23.1467731347365
26.0937731347365 23.212226865263496 22.864680595790503
8.9517731347365 18.6477731347365 29.900226865263498
18.875865673682497 15.4882268652635 2.452680595790497
18.513226865263498 24.296319404209502 26.1793194042095
24.3887731347365 19.9067731347365 24.750226865263507
4.7867731347364995 18.8597731347365 8.017226865263503
8.7652268652635 10.568226865263505 21.084319404209502
17.5217731347365 24.5942268652635 10.751226865263497
18.603680595790507 24.6092268652635 26.707680595790507
7.799226865263499 11.1447731347365 7.315773134736501
26.814773134736498 18.155226865263494 13.6977731347365
22.367226865263497 25.4763194042095 4.898226865263503
25.988773134736498 3.516226865263498 3.2407731347365
15.5767731347365 14.1987731347365 5.950773134736501
3.8733194042095 12.123680595790503 14.996680595790494
10.935226865263495 31.3763194042095 21.522680595790504
15.877226865263502 27.6093194042095 8.4577731347365
16.4153194042095 19.5823194042095 16.848680595790498
28.936319404209502 26.4497731347365 18.406680595790505
6.4517731347365 1.2592268652635 24.4427731347365
14.6312268652635 6.723773134736501 26.882680595790504
31.994226865263506 15.9362268652635 13.4997731347365
1.9516805957904921 26.035773134736502 2.790680595790505
10.720226865263498 2.1012268652634987 6.6287731347365
30.7843194042095 2.0907731347364997 29.990680595790508
2.8237731347365003 9.547226865263504 21.5702268652635
2.202680595790497 14.621226865263502 32.135773134736496
26.148319404209502 10.920226865263501 0.43631940420950244
14.187226865263504 29.4247731347365 29.602226865263496
11.833226865263498 26.1067731347365 7.241226865263499
14.1627731347365 29.333226865263505 31.0483194042095
23.814773134736498 18.7237731347365 23.5557731347365
29.6357731347365 25.2853194042095 20.6447731347365
2.5186805957904994 13.456319404209498 21.9433194042095
18.5197731347365 23.7343194042095 10.2597731347365
1.2267731347365007 5.895226865263503 3.581680595790502
27.27068059579051 18.3877731347365 13.6647731347365
21.2257731347365 24.227773134736502 10.2347731347365
4.870134326317512 7.777226865263501 11.194226865263495
15.483226865263497 17.6436805957905 28.7357731347365
15.794226865263504 28.1747731347365 29.5578656736825
18.544773134736502 3.932680595790501 17.4827731347365
31.346226865263496 19.8763194042095 16.9453194042095
18.6963194042095 0.047226865263503726 14.927680595790505
19.2432268652635 7.4467731347365 30.2573194042095
30.985226865263506 26.999226865263502 11.466680595790493
28.004226865263497 18.51468059579051 31.2693194042095
25.7317731347365 14.6907731347365 26.2043194042095
20.5557731347365 1.8057731347364996 12.5122268652635
