11.162226865263499 3.023226865263503 7.339226865263498
16.355773134736502 4.188226865263495 29.2497731347365
5.719226865263501 30.9057731347365 17.905226865263494
24.5817731347365 12.413226865263503 19.224680595790502
27.9607731347365 19.955226865263505 10.760226865263498
7.0092268652635 27.001773134736503 13.205226865263505
8.1937731347365 14.7102268652635 20.8197731347365
14.0377731347365 11.5647731347365 7.1891343263175145
13.982680595790498 29.6783194042095 28.654226865263503
24.5393194042095 27.985226865263506 14.0062268652635
18.7937731347365 20.4422268652635 8.133680595790494
0.5256805957905044 1.8167731347365006 4.127226865263502
13.289226865263501 18.422773134736502 8.7222268652635
25.144226865263498 7.7257731347364995 12.154226865263503
11.712773134736501 8.5612268652635 14.309226865263504
22.2723194042095 3.2667731347365 14.286319404209504
26.544773134736502 17.5183194042095 24.242773134736503
11.229226865263499 14.1007731347365 6.8232268652635
19.657319404209503 0.3092268652635042 32.0173194042095
12.816319404209498 22.4607731347365 11.080680595790497
30.8377731347365 24.053773134736502 4.748226865263497
12.121226865263502 12.061773134736502 19.111680595790503
15.9727731347365 19.1197731347365 19.3987731347365
3.5602268652634947 7.643680595790499 26.039226865263494
32.039226865263494 3.3107731347365004 5.1222268652634995
11.5087731347365 8.4757731347365 21.4857731347365
4.797226865263504 5.280773134736501 8.4527731347365
3.1287731347365 29.593226865263496 18.729226865263506
27.419773134736502 7.5926805957904975 6.3667731347364995
0.8522268652634963 25.750773134736498 17.0492268652635
15.328319404209498 11.112226865263501 10.577226865263505
6.816773134736501 15.2397731347365 28.139226865263502
9.157226865263503 23.6307731347365 16.5213194042095
3.6332268652635022 12.266226865263498 14.035226865263503
21.7927731347365 4.6867731347365 1.6657731347365008
29.5943194042095 23.9087731347365 10.526226865263503
9.1507731347365 17.4572268652635 12.6147731347365
8.8847731347365 1.5927731347365004 12.545319404209504
0.42422686526349906 22.9053194042095 18.6787731347365
31.2527731347365 8.793773134736501 10.9347731347365
1.5032268652634997 5.620773134736501 22.7267731347365
29.4707731347365 32.0157731347365 11.2787731347365
29.4463194042095 11.047226865263504 16.2842268652635
16.056226865263504 10.7712268652635 26.4267731347365
19.1993194042095 7.356226865263501 7.222773134736499
5.030773134736501 2.3396805957904974 23.203319404209502
9.7637731347365 8.154773134736502 14.2817731347365
8.813680595790501 4.284773134736501 27.9093194042095
20.8957731347365 23.358226865263497 26.5253194042095
28.8207731347365 6.145226865263503 12.6437731347365
5.471680595790502 23.2767731347365 30.065226865263504
18.252226865263502 20.189319404209503 24.541773134736502
17.458226865263505 27.086226865263505 18.3623194042095
32.128319404209506 22.2053194042095 29.632226865263497
1.4333194042095023 30.9933194042095 8.944226865263495
29.6337731347365 24.403680595790505 11.7502268652635
1.2963194042095019 26.6417731347365 2.601680595790498
14.877226865263502 31.9647731347365 22.282226865263503
7.927226865263499 13.2977731347365 19.6197731347365
23.4767731347365 1.316226865263495 31.0543194042095
19.7627731347365 22.8727731347365 20.8027731347365
7.307226865263495 13.124226865263502 17.346226865263496
14.288226865263503 16.9327731347365 20.324226865263505
30.127226865263502 6.800226865263504 25.3847731347365
19.5483194042095 30.023319404209502 1.6946805957905013
10.661319404209504 4.074226865263505 0.7206805957904976
29.916773134736502 4.484226865263501 6.147680595790504
13.0717731347365 31.331226865263496 10.0017731347365
23.0642268652635 8.351226865263499 27.3873194042095
11.3412268652635 3.262319404209503 12.5407731347365
4.084680595790502 27.900226865263498 19.647226865263498
14.5657731347365 19.999226865263502 21.4117731347365
30.3107731347365 31.7073194042095 22.4437731347365
7.752680595790494 16.5047731347365 23.0697731347365
23.898226865263503 18.8547731347365 20.1707731347365
11.728319404209504 9.639773134736501 14.338319404209503
7.225226865263501 25.163226865263503 3.7337731347365004
14.5967731347365 22.399226865263493 15.5247731347365
6.755226865263502 5.383773134736501 8.4777731347365
28.247773134736498 25.7707731347365 10.837226865263496
28.1383194042095 20.997226865263507 2.0822268652635003
30.064319404209503 19.9887731347365 8.016226865263498
15.8202268652635 9.120773134736499 19.1957731347365
16.955226865263505 24.608226865263497 25.245226865263497
28.8903194042095 11.1347731347365 29.7087731347365
15.944319404209498 13.1097731347365 2.8212268652635046
15.8657731347365 8.334226865263496 15.9577731347365
18.7847731347365 8.2317731347365 23.9547731347365
28.1737731347365 4.474226865263496 19.2113194042095
25.4087731347365 28.217226865263505 24.5867731347365
0.5856805957904925 3.499680595790494 22.6333194042095
6.357773134736501 31.5687731347365 22.007226865263497
9.170226865263501 4.406680595790505 27.5127731347365
31.6327731347365 31.5127731347365 28.0953194042095
14.485865673682511 5.3153194042095 23.2583194042095
10.745680595790503 11.743319404209497 18.2072268652635
31.035226865263503 26.1467731347365 24.3136805957905
27.2386805957905 23.0707731347365 27.2587731347365
25.6317731347365 16.3367731347365 19.0777731347365
24.9447731347365 24.3957731347365 30.1783194042095
2.8882268652634977 22.660226865263503 8.528226865263498
7.556226865263504 25.1556805957905 11.090226865263496
22.384226865263493 31.417226865263494 25.814773134736498
31.7067731347365 22.007680595790504 0.09368059579050225
13.8842268652635 29.231680595790507 13.8812268652635
11.0972268652635 26.0707731347365 1.867226865263497
16.5977731347365 4.8352268652635 11.4037731347365
31.7817731347365 31.086226865263505 27.3257731347365
22.503773134736498 21.5677731347365 12.144226865263498
12.440226865263504 28.988865673682497 15.6657731347365
3.333226865263498 31.2757731347365 25.9523194042095
21.494226865263506 3.4816805957904933 15.8627731347365
10.0457731347365 17.2257731347365 17.0507731347365
24.0727731347365 28.2423194042095 3.4177731347364997
0.6106805957904982 31.249226865263502 27.6247731347365
0.3347731347364995 29.1427731347365 26.0227731347365
25.7717731347365 24.374680595790508 1.9767731347365007
15.551319404209497 16.6557731347365 2.931773134736501
17.4467731347365 11.270319404209499 9.879680595790504
24.7233194042095 5.2302268652634964 3.3142268652634996
29.9182268652635 13.1556805957905 21.270319404209502
28.9617731347365 24.780226865263494 30.559773134736503
14.632680595790504 18.8077731347365 6.281226865263498
17.6766805957905 14.507680595790504 2.463773134736501
14.010680595790504 23.0747731347365 21.9477731347365
14.270773134736501 7.395680595790495 19.336680595790497
14.043773134736501 18.5107731347365 27.345226865263506
23.378773134736498 7.985226865263499 17.1622268652635
2.216773134736501 22.6747731347365 18.9487731347365
20.4317731347365 14.595319404209501 20.9267731347365
31.1337731347365 13.425226865263504 21.484680595790508
8.151226865263503 29.2267731347365 5.6792268652634945
7.819226865263495 12.514226865263502 27.126773134736503
6.871226865263502 9.9457731347365 20.4237731347365
17.2773194042095 27.0717731347365 6.602226865263496
5.792226865263501 27.1363194042095 18.471319404209503
27.6873194042095 19.7967731347365 0.18222686526349463
14.6342268652635 17.5063194042095 19.8617731347365
16.291226865263503 27.0977731347365 5.5677731347365
17.5492268652635 10.022226865263498 25.714226865263505
25.8563194042095 15.4692268652635 9.438680595790501
12.737680595790493 20.218319404209502 2.5587731347364997
19.8507731347365 15.2072268652635 9.377226865263502
24.5402268652635 20.189680595790506 13.433680595790506
7.371226865263502 31.1857731347365 31.761226865263502
9.1067731347365 10.284226865263498 24.668680595790505
22.541773134736502 11.7017731347365 29.596226865263496
13.945134326317515 14.315226865263504 22.674319404209502
6.350226865263501 14.7567731347365 28.108226865263497
4.7986805957905005 15.419680595790496 0.8007731347365006
9.577680595790497 0.5622268652635043 7.1837731347365
28.994773134736498 19.9113194042095 31.0397731347365
24.9147731347365 21.351226865263506 21.050773134736502
7.604773134736501 14.5547731347365 25.5947731347365
31.791226865263503 24.1537731347365 4.431226865263504
21.1137731347365 21.5533194042095 31.8987731347365
7.1987731347365 25.0987731347365 5.056226865263504
25.797773134736502 3.8757731347365 13.328773134736501
15.301319404209497 29.363773134736498 18.717226865263505
17.9313194042095 31.114773134736502 23.709226865263496
24.5207731347365 8.743226865263502 8.994773134736501
0.22977313473650085 29.392319404209502 13.285680595790495
17.866226865263506 3.0377731347365007 8.1437731347365
4.4452268652635 11.4392268652635 5.655226865263501
24.8077731347365 29.047680595790496 13.198680595790506
18.009226865263493 26.639226865263502 6.979226865263499
3.5312268652634984 12.1436805957905 6.559226865263504
23.1967731347365 16.1766805957905 8.827680595790497
16.644226865263498 9.894226865263498 8.236680595790503
1.3107731347365004 1.5852268652635004 14.583226865263498
6.660226865263503 23.7747731347365 31.6323194042095
5.8056805957905055 24.971226865263496 31.746226865263502
4.272226865263498 27.3077731347365 24.9547731347365
11.440226865263504 6.763226865263498 31.395319404209502
6.988773134736499 5.4427731347365 3.751773134736501
24.810226865263495 11.8823194042095 3.063226865263495
4.1967731347365 31.9717731347365 4.989226865263497
8.8046805957905 2.524773134736501 13.307226865263495
0.7512268652634972 31.610226865263506 20.0183194042095
18.503226865263507 8.115226865263502 7.565226865263504
22.625773134736498 15.5577731347365 26.7147731347365
29.959226865263496 8.328773134736501 17.2312268652635
31.0083194042095 30.2043194042095 27.2973194042095
12.621226865263502 29.9153194042095 14.211226865263498
25.8243194042095 18.5167731347365 5.874226865263502
7.482680595790498 28.032226865263503 1.086226865263498
11.325773134736501 2.0072268652634975 0.22622686526349867
13.246226865263502 19.230773134736502 29.578226865263495
2.075773134736501 9.329680595790492 19.703226865263495
5.3877731347365 15.866680595790498 9.823680595790506
22.151319404209502 23.5677731347365 8.9116805957905
18.363226865263506 14.652773134736501 8.742680595790503
26.6767731347365 10.374226865263502 29.5413194042095
23.8807731347365 8.322226865263495 15.2567731347365
12.7947731347365 27.7593194042095 28.932226865263495
30.6717731347365 9.4223194042095 11.0717731347365
22.793865673682504 8.199226865263505 22.321226865263505
21.396226865263493 27.8877731347365 18.9487731347365
28.187773134736503 1.6086805957905028 4.2562268652635
30.340226865263496 8.5762268652635 12.452134326317505
4.383226865263502 27.648319404209502 12.177773134736501
8.337226865263496 6.3352268652635 29.6043194042095
6.8177731347365 29.8223194042095 11.6447731347365
24.8442268652635 13.151226865263503 5.988773134736499
5.645773134736499 30.936319404209502 4.367773134736501
6.604226865263499 4.9392268652635 8.734680595790493
6.980680595790503 6.441680595790501 3.763680595790504
22.221226865263496 15.254226865263497 3.312773134736501
7.787773134736501 19.0027731347365 29.6457731347365
21.6387731347365 1.2612268652635024 9.320680595790506
13.5517731347365 29.0257731347365 12.3967731347365
22.172226865263504 15.2042268652635 2.5082268652635022
20.4536805957905 16.0507731347365 8.4937731347365
30.672773134736502 17.751226865263497 26.2663194042095
6.838773134736501 19.4587731347365 28.7243194042095
6.366226865263499 27.248773134736503 22.963680595790507
5.688226865263495 4.598773134736501 15.2977731347365
27.8237731347365 30.1152268652635 23.970226865263506
4.868226865263502 20.635226865263498 31.1627731347365
21.4373194042095 9.541680595790496 6.677319404209502
19.1157731347365 13.0533194042095 9.516134326317513
20.1407731347365 18.9667731347365 13.8307731347365
6.393319404209503 16.772680595790504 5.1617731347364995
29.7102268652635 28.114773134736502 2.7407731347365
31.377226865263502 32.0973194042095 20.056680595790496
26.101226865263506 21.065226865263504 31.8967731347365
25.5612268652635 19.7263194042095 26.6337731347365
0.14622686526350037 17.482680595790498 12.4387731347365
6.670226865263501 24.3387731347365 19.1586805957905
10.838773134736499 26.8017731347365 19.977226865263496
28.703319404209502 0.12522686526349958 9.218226865263496
13.001226865263497 15.784226865263498 13.7597731347365
29.8817731347365 8.095226865263498 11.8467731347365
28.0066805957905 11.278680595790505 23.818226865263505
26.5807731347365 14.860773134736501 8.105680595790503
25.339226865263505 6.7776805957905 20.8357731347365
8.2727731347365 19.6802268652635 4.720226865263498
12.459226865263496 3.8622268652635015 10.8872268652635
30.8453194042095 0.5057731347365007 21.297773134736502
2.216773134736501 17.702226865263505 11.828226865263495
31.416226865263503 10.2567731347365 17.9092268652635
28.411226865263494 22.777226865263493 13.217226865263498
22.431865673682495 15.328226865263495 25.1093194042095
17.233226865263497 24.0283194042095 29.497319404209502
15.517226865263503 12.859226865263501 2.6892268652634996
9.3142268652635 15.295226865263501 24.1603194042095
6.087226865263496 4.404226865263503 4.279680595790495
30.3827731347365 27.0887731347365 0.8847731347365002
8.026680595790495 11.0217731347365 22.5066805957905
14.6342268652635 0.09422686526350077 24.874680595790508
0.8767731347365011 25.2923194042095 13.959773134736501
11.636226865263502 22.789226865263494 10.920226865263501
12.3517731347365 29.641226865263498 9.1736805957905
16.4482268652635 18.0492268652635 18.580226865263505
20.602773134736502 7.5457731347365 17.6562268652635
14.5822268652635 16.3112268652635 10.974226865263496
32.107773134736505 5.924773134736501 22.8717731347365
11.5672268652635 5.897680595790504 27.803773134736502
28.9842268652635 10.6917731347365 24.0923194042095
23.5763194042095 13.9727731347365 25.2167731347365
1.4847731347364999 12.1462268652635 5.2537731347365
2.5006805957904987 7.191226865263495 0.7162268652635007
20.529226865263503 13.190226865263504 11.877226865263502
12.6967731347365 11.3647731347365 6.0982268652634986
3.7817731347365005 30.2723194042095 5.825226865263495
13.020773134736501 18.891226865263498 27.4143194042095
12.3047731347365 8.043680595790505 6.7027731347365
14.1027731347365 12.1307731347365 15.728226865263501
25.8133194042095 18.154134326317504 29.885226865263498
1.8342268652634957 16.3997731347365 20.5153194042095
5.465226865263496 9.9967731347365 11.635680595790504
6.543773134736501 6.300226865263504 15.8947731347365
15.873773134736501 22.468226865263496 15.318680595790497
25.075226865263495 4.190773134736501 24.012226865263493
14.782134326317504 22.846226865263496 4.3141343263175145
17.3577731347365 21.0117731347365 13.790226865263499
7.1797731347365 6.491680595790498 15.7297731347365
16.4507731347365 27.163773134736502 18.5792268652635
21.425773134736502 5.082680595790492 3.1636805957904954
0.6872268652635043 19.660773134736502 3.729680595790498
26.4093194042095 9.604226865263499 23.536226865263494
23.4547731347365 12.3962268652635 4.3947731347365
17.2997731347365 20.5247731347365 14.2477731347365
32.1067731347365 17.0777731347365 2.814680595790506
30.8913194042095 19.3357731347365 18.0807731347365
28.366226865263506 16.9087731347365 22.6946805957905
30.7357731347365 30.885680595790504 26.9242268652635
31.6447731347365 9.162226865263499 30.0223194042095
1.6747731347365011 20.205226865263505 3.0157731347365004
21.395226865263503 5.306773134736501 2.2377731347365
9.575773134736501 6.2017731347365 27.2667731347365
29.791226865263503 28.867773134736503 4.152226865263501
32.0633194042095 8.800680595790496 3.7582268652635022
22.0677731347365 31.343226865263496 7.523226865263503
13.0997731347365 0.6417731347364999 3.0872268652634958
21.122226865263507 28.491226865263506 28.1712268652635
18.7797731347365 9.289226865263501 19.4212268652635
29.2327731347365 15.560226865263495 27.8103194042095
1.809773134736501 10.7057731347365 3.3372268652634958
12.4477731347365 20.0117731347365 30.624226865263502
14.554226865263495 12.6227731347365 0.6866805957905058
8.168226865263499 7.6402268652635 8.961226865263498
11.329680595790492 28.4247731347365 1.5052268652635021
20.480773134736502 21.5897731347365 26.6922268652635
11.995226865263497 30.9797731347365 2.162680595790505
17.8937731347365 26.5857731347365 3.3027731347364995
5.6117731347365005 5.526226865263503 15.4052268652635
21.322226865263495 31.7927731347365 25.079680595790506
30.0672268652635 26.4152268652635 24.227226865263496
20.6307731347365 28.5693194042095 29.4937731347365
9.572226865263495 15.679226865263495 1.0097731347365002
23.507226865263497 11.837773134736501 4.3267731347365
23.7427731347365 30.186773134736498 2.498226865263497
16.539226865263494 8.3902268652635 8.2442268652635
26.1946805957905 20.025226865263498 4.096226865263496
15.576319404209503 8.0473194042095 3.343226865263496
3.5372268652634986 13.962680595790502 15.9777731347365
9.010226865263498 4.178773134736501 25.4387731347365
22.111773134736502 24.3262268652635 20.296319404209502
30.6887731347365 3.596226865263496 6.167226865263501
27.753319404209503 19.5957731347365 0.7772268652635006
10.6627731347365 6.354226865263499 25.936773134736498
26.7433194042095 3.3177731347365 18.0552268652635
13.510226865263498 19.454680595790506 21.3347731347365
11.342226865263498 4.907226865263503 0.9332268652634994
16.7913194042095 14.5302268652635 20.2812268652635
8.353319404209504 1.7697731347365 5.4547731347365005
11.4577731347365 24.3777731347365 22.5457731347365
19.1237731347365 13.921680595790505 27.9153194042095
6.4837731347365 24.8967731347365 29.4722268652635
13.894226865263498 2.7042268652635 22.456226865263496
10.462226865263496 7.662226865263499 4.240680595790494
21.2457731347365 7.5342268652634985 27.155226865263494
30.3577731347365 22.2787731347365 21.040680595790505
0.9116805957905001 4.793773134736501 20.925773134736502
4.9146805957905 6.944226865263495 1.9083194042095037
29.821680595790497 31.7137731347365 27.8777731347365
18.379226865263497 0.40968059579050475 31.0847731347365
11.7267731347365 11.913226865263503 5.363773134736499
23.211226865263505 7.248680595790503 20.071226865263505
0.7886805957904954 2.6822268652634946 11.009680595790499
21.715226865263496 27.5867731347365 30.033226865263494
31.148319404209502 2.9687731347365 6.090226865263496
2.9887731347364994 31.2227731347365 27.1997731347365
31.992773134736503 11.183773134736501 10.961680595790497
14.7377731347365 4.020226865263503 31.0857731347365
24.0277731347365 7.2187731347365 10.0317731347365
26.7687731347365 2.5237731347364996 8.8047731347365
11.1587731347365 21.8177731347365 9.196226865263505
16.863226865263506 10.473680595790498 30.3013194042095
23.794773134736502 0.07368059579050623 12.9697731347365
28.2693194042095 8.920226865263501 2.8012268652634944
17.9757731347365 25.628226865263507 7.2117731347365
6.793680595790505 29.0687731347365 7.2302268652634964
5.959226865263496 4.1187731347365 31.8327731347365
20.1397731347365 3.783226865263501 20.6523194042095
22.8502268652635 3.418680595790505 20.9067731347365
3.1022268652634963 0.9052268652635007 9.2297731347365
11.2267731347365 15.417226865263501 3.6997731347364997
26.0797731347365 20.1327731347365 26.1997731347365
17.0987731347365 12.9482268652635 27.6417731347365
27.5437731347365 13.062226865263504 7.4847731347365
8.828226865263495 11.227226865263496 11.535680595790495
26.657226865263503 5.792226865263501 30.381226865263493
14.6867731347365 5.918226865263499 17.9233194042095
14.4097731347365 4.406680595790505 28.0917731347365
15.050680595790496 4.772226865263498 17.239226865263497
28.808773134736498 0.9406805957904965 6.843680595790502
2.5067731347365 16.2342268652635 19.3067731347365
25.779226865263503 19.706226865263496 2.4622268652634958
30.989226865263497 1.4721343263175157 28.4212268652635
10.271319404209503 1.6212268652635018 7.600226865263501
32.0337731347365 18.080226865263505 24.253773134736498
14.873773134736501 8.960680595790492 15.2427731347365
20.6367731347365 20.0163194042095 24.3817731347365
23.7107731347365 30.223865673682496 19.1832268652635
21.3447731347365 25.9153194042095 22.2477731347365
31.3947731347365 7.5037731347365 22.4662268652635
19.8267731347365 0.6762268652634944 22.6767731347365
9.3557731347365 12.4236805957905 32.0817731347365
22.3747731347365 2.238226865263499 8.647226865263498
17.220226865263506 3.026226865263503 16.3172268652635
26.5552268652635 12.6507731347365 18.3607731347365
15.216680595790493 7.824226865263505 24.9133194042095
2.9627731347364996 16.1916805957905 10.042226865263501
16.3927731347365 25.808319404209502 25.125226865263507
19.619319404209502 24.131226865263493 20.3202268652635
28.4512268652635 25.0857731347365 24.968226865263496
21.001680595790504 26.8177731347365 27.626773134736503
14.631865673682512 17.360226865263506 25.9182268652635
20.181226865263504 21.8607731347365 2.093226865263496
31.6547731347365 30.2717731347365 27.053773134736502
7.252226865263502 12.3292268652635 7.702226865263505
30.277226865263493 19.381226865263493 17.4587731347365
12.4147731347365 31.437226865263504 9.293226865263499
11.234226865263501 30.9613194042095 28.5612268652635
3.9376805957904963 9.2057731347365 26.663773134736502
10.043226865263499 23.786226865263494 15.860319404209502
15.060226865263495 19.5492268652635 30.541773134736502
11.1192268652635 26.693226865263505 16.3592268652635
16.077226865263505 31.1247731347365 4.8683194042094975
28.316226865263495 13.116319404209502 28.5317731347365
16.75268059579051 26.7787731347365 1.9862268652634967
0.9926805957905032 25.673226865263494 18.4797731347365
7.053226865263504 23.4277731347365 20.110226865263506
10.3147731347365 30.8857731347365 7.187226865263504
21.799865673682504 15.6676805957905 26.3137731347365
7.8527731347365 24.5127731347365 19.7217731347365
15.1617731347365 9.913226865263503 9.1462268652635
30.5342268652635 19.396226865263493 18.6887731347365
5.984226865263501 7.0152268652635 20.0503194042095
12.934773134736501 15.1857731347365 6.9597731347364995
18.580226865263505 22.342226865263505 19.944226865263495
1.6987731347365003 11.648680595790495 23.0117731347365
22.4032268652635 28.658226865263494 2.7532268652634997
7.377319404209498 31.5702268652635 13.109226865263501
0.13277313473649954 17.4386805957905 11.496226865263502
11.314680595790506 12.888680595790504 11.639319404209498
1.7966805957905052 30.0363194042095 7.109226865263501
16.6357731347365 13.5152268652635 2.5736805957905062
22.4302268652635 27.059226865263504 30.360226865263506
10.184226865263504 20.8043194042095 10.0272268652635
9.112680595790493 8.7437731347365 9.987226865263501
25.9757731347365 11.995773134736499 18.657319404209503
29.4547731347365 3.588773134736501 13.495680595790503
18.8683194042095 21.7987731347365 13.5607731347365
31.723226865263506 5.792226865263501 24.883226865263502
26.736226865263497 6.0016805957905035 0.580680595790497
18.105226865263496 19.5727731347365 25.0297731347365
24.558773134736498 13.321226865263505 5.2712268652635
2.4877731347365 6.426226865263494 31.309226865263504
4.143680595790499 8.313226865263495 25.558319404209502
4.653226865263498 25.533226865263494 26.276319404209502
0.9937731347365002 31.2907731347365 17.4947731347365
27.8317731347365 12.976226865263499 13.151226865263503
10.7682268652635 20.4907731347365 1.1982268652635
21.5657731347365 0.6562268652634984 6.601773134736501
26.1593194042095 12.3397731347365 19.4032268652635
16.1496805957905 0.7106805957904925 12.4647731347365
23.226226865263506 25.0402268652635 15.7057731347365
25.4097731347365 14.084773134736501 9.7132268652635
10.5627731347365 27.8327731347365 17.4857731347365
18.888226865263498 0.34822686526349855 15.2382268652635
12.172680595790496 5.217226865263498 0.8642268652634968
27.595226865263506 4.511226865263502 1.0702268652634999
6.673226865263501 13.6177731347365 17.8137731347365
29.620773134736503 16.3297731347365 13.796680595790505
29.279319404209502 9.203680595790502 12.1132268652635
8.3857731347365 7.2062268652634955 5.734680595790493
30.9392268652635 11.809226865263504 17.179226865263495
21.8327731347365 8.7147731347365 16.7007731347365
23.5887731347365 10.663226865263503 7.852319404209499
15.6807731347365 28.7257731347365 27.950226865263495
25.4693194042095 4.346226865263496 18.126680595790504
29.7787731347365 10.746680595790494 15.6633194042095
29.998226865263497 29.8963194042095 11.265319404209503
12.719680595790493 19.3202268652635 28.944226865263495
4.6167731347364995 7.2827731347365 25.8352268652635
15.6867731347365 32.0027731347365 21.2727731347365
25.0666805957905 25.858773134736502 17.4887731347365
10.0737731347365 30.9297731347365 24.0803194042095
16.846226865263496 15.1027731347365 15.2367731347365
30.4087731347365 24.5327731347365 22.913773134736502
31.158226865263494 30.7282268652635 22.792226865263494
12.507226865263497 26.5973194042095 14.992226865263497
26.252226865263502 19.248226865263497 2.2257731347364995
30.2877731347365 7.4802268652634964 27.8473194042095
10.4607731347365 26.202680595790497 16.9903194042095
4.396773134736501 16.309134326317505 14.397319404209501
20.8347731347365 23.6477731347365 0.8637731347364994
24.0627731347365 21.828319404209502 10.4757731347365
29.010226865263498 20.3907731347365 31.686680595790506
26.388226865263498 9.9912268652635 17.567773134736502
31.081226865263496 23.758226865263502 22.824226865263505
11.8507731347365 25.486773134736502 16.5732268652635
30.6313194042095 10.8207731347365 10.726226865263499
32.1018656736825 13.447226865263495 21.703226865263495
10.8812268652635 31.6593194042095 9.045226865263501
3.052226865263499 12.296226865263499 22.7707731347365
29.5987731347365 29.658226865263494 17.6683194042095
14.8777731347365 14.787680595790505 16.0473194042095
2.3777731347365005 20.373226865263497 15.674773134736501
6.189680595790506 23.7133194042095 20.1592268652635
30.3262268652635 18.561680595790506 23.253773134736498
1.6227731347364998 11.3977731347365 5.6407731347365
25.041226865263503 18.470226865263506 5.678226865263504
24.9477731347365 3.1802268652634993 25.0402268652635
0.6207731347365009 17.2397731347365 20.0557731347365
29.7437731347365 31.4703194042095 21.7072268652635
16.821226865263505 31.0317731347365 2.840226865263496
27.2833194042095 13.135226865263498 8.662226865263499
30.812773134736503 13.4907731347365 22.524226865263493
6.1317731347365 3.6623194042095015 4.922680595790496
7.1052268652634964 0.02622686526350293 5.789226865263501
24.4067731347365 25.2943194042095 13.3932268652635
29.6952268652635 12.5717731347365 23.384226865263493
6.7247731347365 24.808319404209502 20.1377731347365
30.485226865263506 12.368226865263502 10.9867731347365
4.219226865263501 2.0062268652635 24.072226865263495
7.5937731347365 19.853680595790507 2.9762268652634987
11.352226865263496 22.7042268652635 9.5967731347365
11.2957731347365 20.8167731347365 3.5837731347365
3.053226865263504 10.7532268652635 4.979226865263499
13.5337731347365 1.2732268652635028 3.6206805957905033
7.0682268652635045 30.078226865263495 6.6806805957905055
1.9136805957904954 6.010226865263498 22.861773134736502
14.997319404209502 23.2583194042095 4.011680595790494
15.2617731347365 17.166773134736502 13.6737731347365
24.494226865263506 18.144680595790504 19.6203194042095
9.2237731347365 20.143226865263493 10.3617731347365
10.3597731347365 30.1587731347365 27.6953194042095
27.644226865263498 31.8227731347365 23.3127731347365
21.2727731347365 28.6563194042095 16.1807731347365
15.8707731347365 22.8907731347365 9.2287731347365
13.1237731347365 22.217226865263505 29.169226865263504
29.095226865263506 13.4577731347365 5.8322268652635
7.9676805957904975 21.7873194042095 12.9542268652635
1.259680595790499 25.1226805957905 26.1857731347365
24.601226865263506 13.3782268652635 3.907226865263503
16.9302268652635 23.905226865263494 29.263226865263498
15.752226865263502 16.8726805957905 10.490226865263502
8.922680595790496 3.5622268652635043 12.4007731347365
19.1627731347365 25.667226865263494 23.435226865263495
19.3487731347365 0.3316805957905018 31.007226865263497
3.4907731347365 24.373773134736503 26.019680595790504
10.7132268652635 9.3037731347365 6.736680595790503
3.4476805957905015 16.7132268652635 11.5357731347365
28.1527731347365 0.42122686526349895 9.4517731347365
0.9252268652635038 24.745773134736503 12.6843194042095
6.2012268652635 4.039226865263501 13.959226865263496
18.4557731347365 0.5702268652634999 22.4693194042095
5.9946805957904985 25.0497731347365 30.1497731347365
12.2797731347365 31.8483194042095 1.9236805957905005
1.0897731347365003 27.3442268652635 26.240680595790508
19.5637731347365 4.4572268652635 3.174226865263499
21.386226865263502 24.500773134736498 19.9032268652635
27.397226865263498 13.258226865263502 28.486226865263497
8.843680595790502 12.1947731347365 29.571226865263505
31.9083194042095 26.818226865263505 15.6217731347365
29.3107731347365 3.8496805957905025 1.702680595790497
24.539226865263494 12.373226865263497 6.2917731347365
14.623773134736501 9.9767731347365 30.4847731347365
7.761773134736501 29.032226865263503 29.056773134736503
27.135680595790504 1.164226865263501 8.425226865263504
17.2797731347365 16.4437731347365 2.2012268652635
0.725680595790493 18.2667731347365 12.5977731347365
15.726226865263499 19.5877731347365 26.6623194042095
28.3987731347365 2.2132268652635005 6.6586805957905
27.8537731347365 9.275226865263498 24.857226865263506
26.1387731347365 19.4062268652635 2.9352268652634947
31.871680595790508 17.5492268652635 12.5672268652635
20.8087731347365 0.7096805957905019 10.028226865263498
4.691773134736501 4.426680595790501 14.5032268652635
4.472680595790493 11.2472268652635 5.920226865263501
6.526226865263503 6.8722268652634995 18.070773134736502
5.728319404209504 0.7092268652634957 31.953319404209502
1.668773134736501 10.856226865263501 30.1187731347365
23.4067731347365 30.578319404209502 18.8627731347365
6.6767731347365 25.879226865263497 4.883773134736501
23.312226865263504 5.3047731347365 1.5267731347364997
11.3877731347365 26.977773134736502 15.8297731347365
24.855773134736502 17.804226865263495 31.5213194042095
24.486773134736502 4.955226865263505 27.018226865263493
19.1867731347365 20.023226865263503 30.863773134736498
28.867773134736503 16.7132268652635 22.8877731347365
30.685226865263495 0.5762268652635001 21.801226865263494
0.7072268652635003 1.7582268652635022 5.424226865263499
0.10077313473649951 7.689680595790506 1.6312268652634998
22.5732268652635 2.269680595790504 20.6772268652635
12.111226865263497 25.2187731347365 16.0897731347365
26.9677731347365 0.9182268652634988 23.1427731347365
12.6147731347365 27.5267731347365 6.827226865263505
14.223226865263499 24.2317731347365 13.0577731347365
21.5277731347365 21.967226865263505 0.1546805957904951
5.057226865263495 19.642226865263503 4.346226865263496
4.039226865263501 10.485773134736501 12.549226865263499
27.8137731347365 28.3817731347365 15.5477731347365
16.3853194042095 31.759226865263493 4.341773134736501
12.7532268652635 29.2783194042095 16.702226865263505
27.121680595790508 0.0722268652634952 22.986226865263497
3.2716805957904995 14.929226865263495 21.318226865263505
1.2997731347365011 8.4022268652635 11.029773134736502
23.2567731347365 29.410226865263503 29.742226865263497
0.6523194042095035 7.433680595790506 1.6952268652634999
25.5517731347365 28.304226865263495 9.610680595790498
8.0612268652635 20.849226865263496 9.061319404209502
30.2867731347365 8.087226865263496 25.726226865263506
23.996226865263502 26.416226865263503 4.5982268652634986
28.1987731347365 20.315226865263504 8.0242268652635
19.4027731347365 14.2377731347365 10.9837731347365
19.0103194042095 0.41677313473650024 14.584226865263496
9.2237731347365 13.1222268652635 31.0927731347365
13.290680595790505 17.830680595790497 7.495226865263497
11.3142268652635 12.606226865263501 19.2347731347365
10.6557731347365 9.025226865263498 5.7842268652634985
10.849680595790502 21.7483194042095 22.259226865263493
17.8592268652635 25.6873194042095 24.029226865263503
13.712680595790502 19.119226865263506 26.312773134736503
29.3227731347365 11.6527731347365 21.8467731347365
11.8902268652635 4.424680595790505 0.10122686526349867
2.6792268652634945 22.4482268652635 32.1783194042095
24.940773134736503 5.863226865263499 3.9222268652635037
0.999680595790494 8.691226865263495 9.6187731347365
15.2746805957905 8.5212268652635 18.783226865263494
29.9127731347365 31.9223194042095 9.706773134736501
14.193226865263505 8.769226865263498 27.175773134736502
7.794226865263504 12.7157731347365 28.9907731347365
5.623226865263497 0.23722686526350145 31.2513194042095
26.475680595790507 15.203226865263495 14.1537731347365
30.316226865263495 1.975226865263501 3.2087731347365
5.840680595790502 3.1532268652634983 24.7083194042095
2.0446805957904957 17.081226865263496 10.2592268652635
20.9217731347365 25.5377731347365 23.282319404209503
26.2097731347365 19.1053194042095 5.210773134736501
26.883865673682507 20.2992268652635 19.379226865263497
28.4017731347365 26.5067731347365 7.3217731347365
27.3813194042095 16.5282268652635 18.7097731347365
24.5027731347365 2.2812268652634984 7.9617731347365
24.311773134736498 20.792226865263494 14.715226865263496
15.809226865263504 22.017226865263503 5.098680595790498
6.524773134736501 7.3262268652635 3.5002268652634996
12.1477731347365 30.614226865263497 7.996226865263502
10.139226865263502 8.1537731347365 14.6023194042095
4.070680595790506 1.7146805957904974 4.976773134736501
17.755226865263502 24.939773134736498 28.610226865263506
2.046680595790505 5.961226865263498 29.6523194042095
21.675226865263504 11.970680595790498 13.6297731347365
6.852680595790503 4.2776805957905 14.2857731347365
17.0487731347365 26.8827731347365 5.9092268652634985
27.7167731347365 25.102773134736502 8.486226865263497
0.5422268652635012 10.209226865263496 31.2593194042095
4.2057731347365 30.626226865263497 18.590226865263496
0.8522268652634963 11.186773134736502 1.9647731347365003
6.920226865263501 14.7587731347365 27.2072268652635
10.023226865263503 20.6977731347365 16.7217731347365
10.136319404209498 9.203226865263495 21.824226865263505
4.8312268652634955 15.8867731347365 5.273226865263503
11.648773134736501 5.203226865263495 21.1867731347365
25.3823194042095 18.3287731347365 25.819226865263495
15.5062268652635 5.7712268652635 17.4797731347365
29.9123194042095 24.354226865263506 4.537226865263499
3.153319404209501 5.617226865263497 0.19922686526350475
1.2562268652634998 11.848226865263499 24.508226865263502
7.290680595790505 9.6982268652635 20.0697731347365
21.132226865263497 9.870773134736499 2.202226865263505
27.2937731347365 3.3352268652635004 24.4512268652635
31.0067731347365 7.3003194042095 24.285773134736502
29.157319404209503 22.9482268652635 12.793319404209502
13.8827731347365 12.893319404209503 15.603226865263501
5.498773134736501 20.3367731347365 14.783319404209504
18.064680595790506 9.345226865263498 19.413773134736502
4.754226865263497 14.3277731347365 2.6547731347365
4.601773134736501 19.440680595790496 18.7297731347365
13.122680595790499 19.238226865263506 26.476226865263506
0.6302268652635021 26.622226865263507 15.4117731347365
19.7252268652635 12.953773134736501 11.3962268652635
12.992226865263497 29.8013194042095 11.683680595790506
2.7063194042094985 23.3517731347365 15.164319404209504
30.523226865263503 11.584773134736501 18.5487731347365
9.4302268652635 23.7167731347365 24.8262268652635
14.764773134736501 8.9677731347365 27.7347731347365
2.425680595790496 11.1787731347365 26.3947731347365
10.6402268652635 2.1806805957905055 5.802226865263499
7.829680595790492 15.3692268652635 23.8897731347365
2.9077731347365 22.0917731347365 16.213319404209503
28.2797731347365 25.927773134736498 25.012226865263493
18.294226865263504 3.3517731347365007 27.194226865263495
28.678226865263504 28.703226865263495 8.741773134736501
12.3632268652635 14.742226865263497 27.459226865263496
4.104773134736501 8.550226865263504 20.8747731347365
12.8692268652635 29.684773134736503 28.8793194042095
19.3377731347365 15.764773134736501 9.3717731347365
17.4647731347365 26.1832268652635 11.665226865263499
16.9392268652635 21.4062268652635 7.3667731347364995
27.2633194042095 7.174226865263499 12.875680595790499
19.590680595790502 8.0306805957905 7.7572268652634975
4.7842268652634985 28.8743194042095 19.231680595790507
27.633226865263502 5.8482268652634986 19.0277731347365
22.627226865263502 22.8277731347365 9.383226865263502
11.145226865263503 11.312226865263504 5.6402268652635
23.2842268652635 12.612680595790493 6.7926805957905
29.205226865263505 4.684226865263504 13.230226865263496
11.077226865263505 21.8472268652635 24.607226865263506
22.0852268652635 4.300226865263504 2.9137731347365
22.5637731347365 2.9322268652634946 8.142773134736501
5.4547731347365005 5.244226865263499 17.2157731347365
9.735226865263499 12.6616805957905 0.3426805957904975
1.1987731347365003 26.2807731347365 15.0647731347365
18.011226865263502 25.2237731347365 29.0432268652635
15.233680595790503 6.9167731347365 4.959226865263496
23.3423194042095 24.498226865263497 13.8627731347365
4.050226865263504 17.7127731347365 19.586680595790497
6.264773134736501 25.7933194042095 31.218226865263496
31.0522268652635 3.333680595790497 12.911226865263501
6.583226865263498 27.751773134736503 25.1317731347365
26.2927731347365 32.1607731347365 24.2782268652635
16.6887731347365 25.3957731347365 31.5077731347365
9.552773134736501 14.139773134736501 9.9692268652635
5.863226865263499 21.983226865263497 29.8502268652635
18.947226865263495 31.404319404209502 10.128319404209503
20.9302268652635 4.553773134736501 19.9932268652635
2.6777731347364995 22.241226865263506 21.4512268652635
10.772226865263498 7.186680595790506 0.029226865263503043
20.0642268652635 22.907226865263503 25.3833194042095
19.466680595790507 24.3803194042095 10.4572268652635
22.288773134736502 29.648226865263503 24.9063194042095
21.0017731347365 18.0822268652635 4.815226865263504
14.5567731347365 5.703680595790502 18.423226865263494
1.0142268652635025 3.2887731347365 19.132226865263497
17.757226865263497 27.666226865263503 24.6307731347365
13.1737731347365 6.692319404209503 19.9122268652635
23.165680595790505 8.1192268652635 8.0762268652635
31.925773134736502 32.0582268652635 27.800773134736502
4.4397731347365 12.672680595790496 14.3412268652635
29.150226865263498 7.907226865263503 25.1953194042095
8.284680595790505 15.9542268652635 23.6982268652635
19.8487731347365 20.598226865263506 20.0257731347365
18.6712268652635 31.038226865263503 31.0303194042095
16.9857731347365 4.6167731347364995 21.7167731347365
9.955226865263505 8.9662268652635 4.844773134736501
31.2657731347365 32.0577731347365 21.2222268652635
30.6583194042095 7.044680595790496 17.8907731347365
22.5147731347365 26.285226865263503 5.421226865263499
12.0157731347365 21.8797731347365 22.627226865263502
25.839226865263505 4.7817731347365005 25.9453194042095
17.218226865263496 0.5242268652635005 12.7382268652635
8.1287731347365 31.3397731347365 28.1077731347365
15.6432268652635 5.269226865263498 12.0057731347365
8.0637731347365 3.1867731347365 13.480680595790503
25.108773134736502 21.2573194042095 8.615680595790494
11.059226865263504 22.1567731347365 23.7927731347365
12.054226865263495 7.4527731347365 22.274226865263493
6.0672268652635 31.8533194042095 31.782319404209503
8.485226865263499 18.9287731347365 14.8077731347365
7.3147731347365 31.8303194042095 25.9997731347365
11.267226865263503 13.858226865263497 6.367226865263497
2.154319404209499 6.468226865263496 16.0027731347365
23.669773134736502 11.096226865263496 5.392680595790495
23.925680595790496 12.5332268652635 18.217226865263505
21.0947731347365 6.025680595790504 16.4637731347365
22.164226865263494 12.075319404209498 1.0032268652634997
2.746680595790494 0.678680595790496 27.8407731347365
4.203226865263495 29.959680595790502 7.540226865263499
22.5367731347365 9.8687731347365 28.5747731347365
0.20077313473650094 26.876773134736503 16.1417731347365
31.172226865263504 27.494226865263506 32.0133194042095
30.437773134736503 17.2977731347365 25.0297731347365
4.500680595790499 6.354226865263499 7.6857731347365
23.3477731347365 22.4517731347365 23.0217731347365
21.256226865263493 28.140226865263493 4.220226865263498
9.7917731347365 20.267226865263503 23.517319404209502
1.5452268652635013 17.041226865263503 25.171680595790505
31.4083194042095 20.1817731347365 27.024226865263493
27.4482268652635 20.819226865263495 31.2847731347365
17.069226865263495 9.554226865263495 9.3327731347365
11.4757731347365 15.7102268652635 5.7687731347365006
16.185226865263495 6.217226865263498 22.0217731347365
2.8652268652635016 30.086865673682496 18.002226865263502
6.196226865263505 8.668226865263499 18.775226865263498
17.849773134736502 4.7372268652635015 27.8177731347365
17.929226865263495 6.6662268652635035 22.836226865263505
13.0092268652635 14.268319404209503 22.072226865263495
1.2336805957905028 16.861226865263497 19.163773134736502
8.8157731347365 14.187773134736501 18.4603194042095
29.8033194042095 22.257680595790504 6.596226865263496
16.0732268652635 28.886226865263502 5.803226865263504
0.14968059579049964 20.4787731347365 10.347680595790493
25.906680595790505 12.2012268652635 31.7603194042095
17.9327731347365 27.789226865263494 14.799773134736501
2.8647731347365006 12.8237731347365 14.834319404209499
0.7597731347365002 7.845680595790498 2.2237731347365006
30.1353194042095 31.791773134736502 11.5347731347365
29.616773134736498 20.0687731347365 19.27068059579051
19.039226865263494 24.496226865263502 9.824226865263505
19.567773134736502 20.137226865263493 6.2012268652635
20.0797731347365 16.022226865263498 7.633226865263502
19.864226865263497 20.218226865263496 15.97386567368251
7.364680595790503 24.149226865263493 31.4997731347365
2.7942268652635036 27.680773134736498 25.4037731347365
4.918773134736501 1.3352268652635004 22.8717731347365
12.060319404209498 25.7897731347365 30.5107731347365
27.1323194042095 3.860226865263499 0.48322686526349656
16.5047731347365 10.974226865263496 26.672773134736502
26.3327731347365 14.889773134736501 11.735680595790498
4.8892268652635025 8.573319404209503 13.527773134736501
16.900226865263498 10.2757731347365 9.0957731347365
28.497773134736498 25.8172268652635 29.974773134736502
20.6182268652635 14.732226865263499 15.7832268652635
26.3597731347365 25.0943194042095 29.9047731347365
19.5343194042095 32.1662268652635 9.3917731347365
19.1997731347365 23.708226865263505 1.9547731347365005
25.677319404209502 6.743680595790494 30.657319404209503
26.5187731347365 8.0207731347365 11.1997731347365
2.1297731347364994 4.450226865263495 28.757226865263497
26.959319404209502 1.7542268652634974 8.561773134736502
11.552134326317514 4.5847731347364995 27.8943194042095
12.3232268652635 13.105226865263496 23.7847731347365
19.5693194042095 12.4167731347365 10.232226865263499
0.42913432631750936 24.861773134736502 14.055773134736501
13.345680595790498 26.860319404209502 27.7037731347365
14.9407731347365 3.8077731347365003 28.0697731347365
2.898226865263503 26.3107731347365 2.3937731347365006
26.3503194042095 9.1627731347365 16.6857731347365
24.232226865263506 16.3067731347365 27.243680595790508
4.1647731347365 21.8957731347365 14.590319404209499
24.04168059579051 28.459226865263496 25.4233194042095
30.050226865263504 18.3247731347365 24.2333194042095
10.7772268652635 4.636773134736501 22.757680595790504
13.5867731347365 16.3022268652635 6.4482268652635
17.4542268652635 28.930319404209502 10.1257731347365
9.615226865263502 4.1862268652634995 11.159226865263498
7.1277731347365005 18.491226865263506 24.5027731347365
7.3722268652634995 16.672226865263504 25.194226865263495
13.959226865263496 19.8187731347365 30.8467731347365
2.0732268652635 31.9467731347365 18.0877731347365
8.683773134736501 6.8667731347364995 17.700226865263495
5.305226865263499 9.1617731347365 12.764226865263502
0.9242268652634991 17.1886805957905 24.8537731347365
12.477680595790503 21.141680595790504 27.282319404209503
31.503319404209503 11.1802268652635 11.770226865263503
4.0547731347365 9.1922268652635 20.9512268652635
19.080226865263505 7.902773134736501 13.4767731347365
0.3812268652634998 9.981226865263501 9.3747731347365
3.8587731347365004 9.361226865263497 5.626773134736501
1.5767731347365004 30.5327731347365 26.2303194042095
31.814773134736498 24.3267731347365 31.6857731347365
19.5537731347365 17.961226865263505 13.424226865263499
7.860226865263499 18.7907731347365 18.598226865263506
10.782319404209499 8.0697731347365 32.007773134736496
28.821226865263505 28.8613194042095 19.0317731347365
11.490226865263502 17.6547731347365 16.8017731347365
2.130226865263502 7.2207731347365005 1.985226865263499
15.6982268652635 8.656226865263498 9.057226865263495
10.860773134736501 8.2657731347365 22.477773134736502
30.9827731347365 19.7697731347365 18.5822268652635
0.9197731347365004 29.8447731347365 25.3987731347365
13.152773134736501 21.8727731347365 4.9487731347365
30.4703194042095 10.3842268652635 11.8487731347365
17.520319404209502 8.9177731347365 8.952680595790497
0.24077313473650008 27.378226865263507 16.2072268652635
20.9332268652635 3.591773134736501 15.121226865263502
14.9997731347365 22.5987731347365 4.910680595790495
18.9577731347365 14.336226865263498 15.353680595790493
1.5032268652634997 27.5347731347365 12.729226865263499
1.9632268652635005 31.8817731347365 16.539226865263494
7.892226865263503 24.8177731347365 11.492226865263497
19.6747731347365 0.17268059579049577 10.325226865263495
5.9512268652635 6.522680595790504 26.8327731347365
11.3497731347365 21.1597731347365 17.2162268652635
7.184773134736501 12.989680595790503 6.184773134736501
18.638226865263498 0.185680595790501 21.3417731347365
7.975226865263501 15.6547731347365 25.6687731347365
24.4283194042095 27.931226865263504 12.914226865263501
13.2217731347365 9.588773134736499 15.591773134736501
10.302773134736501 31.302319404209502 29.9097731347365
0.6862268652634995 15.440680595790496 29.9453194042095
29.6467731347365 17.0627731347365 14.1337731347365
17.0432268652635 28.3397731347365 17.745680595790503
2.5732268652635 5.457680595790492 16.331319404209502
3.2812268652634984 12.6417731347365 28.980773134736502
0.8043194042094974 24.3567731347365 19.2577731347365
17.7962268652635 8.6257731347365 12.719319404209504
2.3296805957904922 13.5247731347365 22.0677731347365
0.41722686526350117 6.005226865263502 29.561319404209502
15.977226865263496 22.063226865263495 5.316773134736501
0.5952268652634984 21.3292268652635 26.2557731347365
14.191226865263495 21.444226865263495 2.7307731347365003
25.4753194042095 16.762226865263493 19.1682268652635
20.4017731347365 4.8382268652635005 27.3357731347365
19.419773134736502 24.5912268652635 20.6197731347365
25.1217731347365 8.0977731347365 10.0397731347365
21.436680595790506 3.907226865263503 3.964226865263498
27.241226865263506 4.809773134736501 31.9733194042095
4.407680595790495 15.4512268652635 1.1962268652635046
7.130226865263502 17.3622268652635 4.880226865263502
7.996680595790494 14.9867731347365 15.946680595790497
14.6647731347365 1.0126805957904992 25.2747731347365
19.494226865263506 11.840773134736502 10.7626805957905
5.357773134736501 18.211226865263505 19.0497731347365
2.6487731347364996 13.0447731347365 22.872226865263507
12.2802268652635 5.365319404209497 20.724773134736502
23.1703194042095 30.720226865263506 19.631226865263493
5.8907731347365 6.0197731347365 8.0122268652635
8.748226865263497 4.3056805957905055 26.294773134736502
16.3827731347365 10.2867731347365 2.647226865263498
15.0617731347365 31.1683194042095 24.7012268652635
19.2386805957905 9.1977731347365 24.7147731347365
28.552773134736498 2.286319404209504 3.8826805957905037
28.6493194042095 26.485226865263506 24.0237731347365
25.76468059579051 7.263226865263498 11.3827731347365
14.4317731347365 8.9523194042095 30.864773134736502
21.1892268652635 26.300773134736502 24.9692268652635
6.1862268652634995 30.5107731347365 4.134680595790499
