21.0057731347365 3.0116805957904944 8.3567731347365
10.670226865263501 9.822226865263495 27.645226865263503
21.095226865263506 31.0667731347365 22.087226865263496
23.6627731347365 18.727773134736502 24.555773134736498
10.7712268652635 16.6652268652635 0.9787731347364996
0.623773134736501 8.276226865263503 26.492226865263497
7.114680595790503 6.4137731347365 19.212226865263496
20.8077731347365 11.5087731347365 6.423226865263501
19.745226865263497 4.008226865263502 25.5877731347365
23.2836805957905 19.794773134736502 4.6737731347365
16.2867731347365 18.548226865263494 13.733680595790503
5.3766805957905035 24.1687731347365 5.486226865263497
25.507226865263497 22.8123194042095 13.7307731347365
0.873773134736501 0.24022686526350157 3.8612268652634967
19.9687731347365 23.9697731347365 30.0687731347365
2.762680595790499 4.4026805957905 17.7507731347365
10.456680595790502 15.0642268652635 13.924226865263499
10.8807731347365 19.8323194042095 26.4537731347365
22.852773134736502 27.0367731347365 26.2317731347365
10.2247731347365 7.812226865263504 4.5797731347365005
22.523319404209502 31.8073194042095 0.7357731347365011
29.5177731347365 18.067773134736502 5.444773134736501
11.852226865263496 26.1717731347365 29.5147731347365
31.7042268652635 20.9427731347365 17.1337731347365
30.425226865263504 26.3207731347365 25.4536805957905
16.9297731347365 7.4207731347365 17.718319404209502
16.657226865263503 20.6093194042095 20.151226865263503
17.644226865263498 24.1182268652635 23.6622268652635
4.032680595790495 17.7207731347365 8.423226865263501
15.9157731347365 27.2147731347365 26.899226865263493
11.5367731347365 25.6532268652635 25.315680595790496
10.625319404209502 13.187226865263504 27.577226865263505
12.088773134736499 15.840226865263496 24.9717731347365
11.5152268652635 22.075226865263495 20.869226865263506
26.4083194042095 18.6717731347365 24.9583194042095
20.123680595790503 19.672773134736502 8.534226865263498
8.1987731347365 0.7536805957904988 8.0942268652635
8.4807731347365 16.6682268652635 1.7272268652634963
28.6097731347365 6.5317731347365005 3.016226865263498
14.645226865263503 7.137680595790499 25.936865673682505
21.6557731347365 8.4517731347365 24.7252268652635
21.2767731347365 17.0743194042095 26.267226865263503
27.622319404209502 14.176226865263494 14.376226865263497
8.8557731347365 28.4507731347365 6.905226865263501
21.4632268652635 16.635226865263498 12.3812268652635
22.8397731347365 9.2507731347365 19.3517731347365
19.1097731347365 23.544226865263504 11.8937731347365
4.6987731347365 20.003319404209503 19.998680595790503
21.5763194042095 4.0342268652634985 31.0847731347365
6.508680595790494 28.0522268652635 25.453226865263495
23.3167731347365 23.834226865263496 20.0837731347365
27.6937731347365 11.970226865263498 21.050773134736502
3.931226865263504 25.6952268652635 22.7487731347365
31.830226865263505 19.6017731347365 12.278226865263498
19.5437731347365 23.554226865263495 30.4253194042095
10.154773134736502 14.194226865263495 17.184226865263504
29.7087731347365 2.4917731347364995 14.546773134736501
31.2737731347365 10.561773134736502 8.1832268652635
29.779865673682508 2.0647731347365 22.6682268652635
2.6952268652635 21.5273194042095 6.3667731347364995
22.486226865263497 31.351680595790498 9.659319404209501
24.3883194042095 20.3407731347365 10.401773134736501
22.635226865263498 21.821226865263505 16.1532268652635
10.3427731347365 14.233226865263497 14.2717731347365
7.113680595790498 30.2653194042095 12.3857731347365
25.348226865263506 27.288773134736502 10.706773134736501
13.555773134736501 0.9572268652635003 25.6047731347365
5.465226865263496 15.3082268652635 14.5882268652635
8.4117731347365 22.4547731347365 22.7402268652635
18.8172268652635 18.5833194042095 8.253680595790499
4.459226865263496 16.8627731347365 27.5857731347365
25.200319404209502 26.3016805957905 18.031680595790505
3.709680595790502 31.8447731347365 17.267226865263503
0.5942268652635008 27.306226865263504 6.2817731347365005
7.1466805957904995 21.804226865263495 6.579680595790492
12.1252268652635 30.8237731347365 26.933773134736498
5.0556805957905055 25.7407731347365 10.677773134736501
12.0277731347365 23.672226865263504 2.9562268652634955
21.805319404209502 9.598226865263499 8.6222268652635
29.252226865263502 26.3207731347365 22.104226865263506
21.994226865263506 3.6697731347365004 22.178773134736502
15.8047731347365 17.5967731347365 24.6182268652635
16.991226865263506 27.134226865263493 30.7372268652635
4.233226865263497 13.525226865263498 26.337226865263496
25.384226865263493 6.2957731347365 4.691226865263495
12.020226865263503 15.1187731347365 28.727773134736502
21.8337731347365 31.0243194042095 2.732319404209502
27.9417731347365 29.6527731347365 1.5752268652634953
18.5912268652635 21.5527731347365 15.941680595790501
23.015226865263493 21.500226865263507 3.7262268652634987
11.753680595790499 22.30713432631751 1.914226865263501
7.018680595790499 12.862680595790493 3.056680595790496
14.8667731347365 11.252134326317503 22.8543194042095
10.300226865263504 25.656680595790505 24.2896805957905
0.45377313473650105 11.2836805957905 29.939773134736498
24.800226865263504 30.7127731347365 18.7667731347365
27.858773134736502 26.5047731347365 2.8882268652634977
17.7197731347365 3.0756805957905016 4.439680595790506
15.151226865263503 1.6807731347364996 10.5487731347365
18.333226865263505 6.953773134736501 6.600226865263501
0.828773134736501 10.5977731347365 29.7787731347365
14.376226865263497 7.474226865263496 16.601226865263506
9.379226865263497 4.078226865263495 18.2282268652635
4.403226865263498 9.273226865263503 4.077226865263505
17.9632268652635 24.1323194042095 16.4597731347365
26.6957731347365 28.637226865263493 28.5437731347365
26.6203194042095 5.113773134736499 2.1066805957904933
30.818226865263505 21.251680595790504 17.714226865263505
28.8367731347365 1.610226865263499 10.252865673682507
28.367773134736503 16.3442268652635 0.28068059579049986
12.551226865263494 9.1737731347365 19.1247731347365
7.630773134736501 16.331226865263496 2.9452268652635
24.1652268652635 13.117226865263497 15.0187731347365
31.2907731347365 19.6092268652635 10.4343194042095
31.721319404209503 17.7687731347365 27.193226865263505
26.1333194042095 9.294226865263504 13.126680595790504
20.2267731347365 26.619773134736498 12.648773134736501
18.9397731347365 10.639226865263502 3.981319404209504
2.7102268652635004 16.4717731347365 13.6357731347365
11.200773134736501 19.732680595790498 27.1553194042095
1.8402268652634959 20.1437731347365 25.050773134736502
14.0537731347365 25.747319404209502 19.4627731347365
21.974773134736502 26.989773134736502 1.8092268652635042
28.4088656736825 12.465226865263496 28.886226865263502
7.319226865263495 2.6447731347365 28.081226865263496
9.5767731347365 21.425226865263504 2.4037731347365003
18.6797731347365 20.9267731347365 20.1367731347365
32.167226865263494 9.7012268652635 13.2177731347365
1.6282268652634997 25.1677731347365 6.5032268652635
28.1987731347365 26.031680595790505 21.4427731347365
1.6227731347364998 4.8087731347365 19.265226865263493
14.1952268652635 17.477773134736502 1.103226865263501
24.1617731347365 26.251226865263497 3.4422268652634997
17.080226865263505 3.3442268652635008 19.2847731347365
5.377226865263502 5.4327731347365 17.3667731347365
21.318226865263505 11.3917731347365 20.260226865263498
20.8227731347365 26.626773134736503 8.912226865263499
14.4407731347365 12.337773134736501 22.1982268652635
21.876226865263497 30.849226865263496 2.2672268652635026
12.133680595790494 7.8147731347365 8.622773134736502
21.8517731347365 13.846319404209499 21.3127731347365
29.0547731347365 25.270226865263503 9.346319404209499
20.6327731347365 20.3232268652635 3.343226865263496
8.164226865263501 22.3837731347365 3.0927731347365004
22.8087731347365 18.0617731347365 30.1367731347365
16.5623194042095 29.7467731347365 20.101226865263506
6.0197731347365 13.2502268652635 22.9783194042095
12.7442268652635 29.5372268652635 3.8902268652635
12.799226865263499 17.000226865263507 9.3747731347365
13.232319404209502 29.053226865263504 8.263226865263498
14.976319404209502 30.4127731347365 21.5726805957905
13.241773134736501 7.441226865263495 15.0137731347365
22.503226865263507 3.221226865263496 21.158226865263494
26.815226865263504 22.220226865263506 18.873226865263497
31.096319404209503 19.4332268652635 11.2717731347365
9.537319404209502 16.176319404209497 1.989680595790503
29.5177731347365 11.136226865263502 0.7506805957904987
4.3722268652634995 30.9662268652635 20.814680595790506
20.5867731347365 22.898865673682508 30.9647731347365
16.6857731347365 16.4932268652635 2.407680595790495
23.5207731347365 14.687773134736501 5.788226865263503
31.5267731347365 16.224773134736502 17.324226865263505
30.8687731347365 20.861773134736502 17.9602268652635
15.275226865263498 26.4847731347365 27.690226865263504
11.043773134736501 14.105226865263496 20.5557731347365
1.7232268652634986 5.2592268652635 23.041226865263503
19.7707731347365 32.0847731347365 12.4807731347365
25.885226865263498 5.4162268652635035 17.1807731347365
14.3902268652635 19.6742268652635 28.6017731347365
21.1657731347365 10.772226865263498 9.876226865263497
15.2597731347365 18.7962268652635 26.950319404209502
3.1152268652635016 0.23022686526349645 19.8016805957905
30.934680595790496 18.027226865263493 12.011226865263502
25.681773134736503 27.8437731347365 6.8107731347365
10.773226865263503 8.299226865263499 25.680773134736498
6.856680595790493 25.5577731347365 29.6247731347365
5.8217731347365 26.104226865263506 15.2227731347365
17.8977731347365 0.815134326317505 5.8262268652635
10.844680595790493 11.331680595790502 27.3207731347365
28.160773134736502 7.5182268652635 26.452226865263505
23.9997731347365 20.6857731347365 5.4362268652634995
12.586226865263498 22.9427731347365 15.2307731347365
20.6122268652635 5.328773134736501 30.1747731347365
3.6796805957905008 7.512680595790499 8.668773134736501
22.534680595790505 31.163226865263503 23.0587731347365
3.2737731347364996 19.367865673682502 24.840319404209502
23.8537731347365 21.381226865263493 27.4237731347365
30.286226865263494 10.370226865263497 17.2187731347365
13.6552268652635 13.7197731347365 3.440773134736501
14.4517731347365 10.221226865263496 18.355773134736502
23.3847731347365 8.8527731347365 29.190226865263504
11.367226865263497 29.0777731347365 29.364773134736502
26.7227731347365 4.465134326317511 1.0922268652634983
0.5012268652634972 12.0517731347365 17.2627731347365
2.4672268652634983 23.6647731347365 0.9817731347364997
0.803226865263504 7.5477731347365005 26.7883194042095
5.350226865263501 5.313680595790501 11.023226865263503
7.074226865263505 21.744226865263506 12.493319404209497
26.4332268652635 19.0857731347365 24.1377731347365
19.7457731347365 11.321680595790497 25.107226865263506
2.725680595790493 19.376226865263497 14.190226865263504
13.239226865263497 8.2072268652635 6.7866805957905
21.9242268652635 4.5077731347364995 7.206680595790502
27.2017731347365 14.603680595790493 19.836226865263505
31.9323194042095 11.188226865263495 8.5182268652635
15.6383194042095 0.3542268652634988 20.475680595790507
3.4032268652634983 26.2203194042095 11.6877731347365
4.174226865263499 27.764319404209502 22.638226865263498
10.849226865263496 12.2377731347365 11.8722268652635
2.546680595790505 2.0452268652635013 13.3662268652635
9.458226865263498 11.5057731347365 7.4657731347365
29.5877731347365 26.0317731347365 15.3202268652635
25.486773134736502 8.9117731347365 5.287680595790505
20.9887731347365 22.849773134736502 10.8467731347365
1.1887731347365005 31.730773134736502 3.8081343263175143
21.727226865263496 23.878773134736498 7.499226865263502
1.9527731347364998 25.352773134736502 6.322773134736501
3.0072268652634975 4.548226865263501 14.542319404209504
13.1342268652635 17.733226865263497 24.0077731347365
24.039226865263494 12.734680595790493 15.6982268652635
30.5853194042095 12.815226865263504 27.203226865263495
11.8487731347365 28.7697731347365 31.069226865263495
11.7577731347365 28.132865673682502 6.883226865263502
23.315226865263504 2.4997731347365004 1.8882268652634977
26.065226865263504 28.5833194042095 28.369226865263506
9.9437731347365 14.2177731347365 18.199226865263505
29.767319404209502 3.225226865263501 12.2222268652635
2.280773134736501 21.928773134736502 5.2562268652635
13.995226865263497 28.735226865263506 4.031680595790505
22.806226865263504 19.4573194042095 23.096226865263496
2.482680595790498 19.6287731347365 13.1087731347365
0.5992268652634962 17.130226865263502 26.376773134736503
28.751226865263497 18.687680595790496 26.5397731347365
9.2532268652635 3.3957731347364994 17.1347731347365
3.5992268652634962 12.930680595790506 10.488773134736501
3.813226865263495 20.0437731347365 16.0657731347365
26.6747731347365 21.762226865263493 18.0397731347365
17.1767731347365 2.5547731347365 3.2217731347365
30.8733194042095 27.6862268652635 15.0807731347365
17.8927731347365 18.4697731347365 8.741773134736501
24.29168059579051 15.973226865263506 19.843226865263496
6.058319404209502 12.424680595790505 24.3367731347365
25.8417731347365 30.6627731347365 16.2992268652635
5.049226865263499 26.4787731347365 21.294773134736502
13.639226865263502 0.6862268652634995 15.485226865263499
0.7972268652635037 4.5726805957905015 29.648226865263503
10.8632268652635 13.4392268652635 19.9127731347365
24.408226865263494 29.8287731347365 8.225319404209504
11.252680595790494 7.985226865263499 13.980226865263496
27.3107731347365 1.8536805957904932 11.461680595790497
1.607680595790498 31.1107731347365 27.6577731347365
20.9253194042095 12.3142268652635 27.964226865263505
15.956773134736501 30.513226865263498 22.4597731347365
18.9797731347365 10.4707731347365 22.4457731347365
31.8857731347365 26.211226865263505 31.930319404209502
13.410680595790495 4.7467731347365 22.1367731347365
0.34213432631750607 22.152226865263493 23.9937731347365
6.9067731347365005 22.066226865263495 11.482773134736501
17.669680595790496 14.8137731347365 17.798226865263494
8.962773134736501 17.837226865263496 12.5917731347365
24.0287731347365 19.8322268652635 30.891226865263498
28.3043194042095 26.800773134736502 30.514226865263502
20.5683194042095 15.5297731347365 21.7237731347365
1.336226865263498 0.09422686526350077 25.919773134736502
30.8967731347365 26.498226865263497 6.2592268652635
27.439319404209503 22.679226865263495 3.1627731347365007
25.744226865263506 14.0977731347365 17.2997731347365
13.025319404209501 23.1737731347365 22.609865673682506
24.4782268652635 31.1563194042095 27.8173194042095
26.1152268652635 17.723680595790498 25.5517731347365
21.3943194042095 9.206319404209498 10.818226865263505
30.416773134736502 23.1957731347365 9.919226865263504
2.1432268652635003 3.900226865263498 31.3653194042095
31.433319404209502 15.2217731347365 11.834773134736501
10.336226865263498 15.0507731347365 23.888680595790504
9.401773134736501 15.187773134736501 18.8387731347365
25.943226865263505 21.396226865263493 11.459226865263496
24.9117731347365 31.8493194042095 24.1217731347365
6.209680595790502 22.2597731347365 22.5803194042095
17.2637731347365 11.9253194042095 13.4427731347365
11.3487731347365 20.8477731347365 19.7097731347365
0.14322686526350026 3.8137731347365005 29.1577731347365
11.049319404209502 27.4937731347365 16.5087731347365
11.0302268652635 19.8673194042095 30.62768059579051
11.1252268652635 6.850226865263501 24.9443194042095
17.291226865263503 16.2753194042095 18.608226865263497
28.4493194042095 25.9187731347365 29.7933194042095
5.712226865263496 22.748226865263497 7.732226865263499
6.8087731347365 17.2282268652635 12.9087731347365
22.500319404209502 9.501680595790504 0.6787731347365007
22.0367731347365 22.9047731347365 16.751226865263497
5.394680595790504 20.203226865263495 2.624226865263502
27.7563194042095 25.6796805957905 4.6322268652634975
18.4087731347365 22.9647731347365 27.7866805957905
10.784226865263498 27.0163194042095 7.397680595790504
13.9037731347365 16.4737731347365 12.1802268652635
29.9427731347365 13.6337731347365 10.778226865263498
7.700226865263495 15.6233194042095 29.393958212628505
0.5542268652634945 9.3232268652635 22.202226865263505
8.773773134736501 10.270773134736501 7.516680595790504
6.224226865263496 5.888226865263498 20.0167731347365
26.4247731347365 12.392773134736501 16.4242268652635
17.9687731347365 29.433773134736498 20.9182268652635
9.674226865263499 27.6097731347365 16.3137731347365
12.924773134736501 23.6217731347365 12.5307731347365
31.814773134736498 26.5366805957905 6.013226865263498
16.4347731347365 27.760226865263498 9.9912268652635
10.7807731347365 22.9217731347365 13.113319404209502
7.120226865263497 15.6547731347365 3.6922268652634997
1.3336805957904971 21.8013194042095 5.428773134736501
27.0393194042095 15.8337731347365 15.8827731347365
1.8016805957905007 30.9717731347365 18.0527731347365
11.7507731347365 18.6643194042095 27.465226865263496
23.224773134736502 16.9717731347365 6.3777731347365005
0.42768059579050544 16.173226865263494 0.8427731347365004
8.310226865263495 6.111226865263497 30.5743194042095
13.654226865263503 17.703226865263495 23.6037731347365
5.350226865263501 27.4723194042095 22.635226865263498
5.5856805957904925 11.392226865263503 29.899226865263493
26.7073194042095 25.50868059579051 21.7043194042095
29.5552268652635 27.916773134736502 30.8207731347365
1.069226865263495 5.058680595790506 31.983226865263497
14.8627731347365 20.001680595790504 5.136226865263502
4.075680595790502 7.315226865263504 25.894226865263498
22.2327731347365 30.479226865263506 3.861680595790503
8.5217731347365 2.7546805957905036 9.7817731347365
16.1577731347365 13.217226865263498 14.2377731347365
2.124680595790494 9.1162268652635 27.1097731347365
1.0037731347365 29.8797731347365 6.974226865263496
14.566319404209498 1.1543194042094989 17.125226865263507
4.7277731347365 8.556773134736499 6.990226865263502
2.847680595790493 10.036226865263501 6.026680595790495
6.3237731347365 16.387226865263493 14.796773134736501
27.382226865263497 11.6967731347365 5.424680595790505
30.5303194042095 9.153680595790505 15.221319404209499
16.782226865263503 12.572226865263495 14.3797731347365
5.437226865263504 18.595226865263506 25.224773134736502
0.8632268652634991 24.1487731347365 1.7012268652635
12.023226865263503 10.5092268652635 30.247226865263507
19.0757731347365 14.3812268652635 6.866226865263499
1.7932268652634988 0.1477731347365001 24.888226865263498
8.477226865263496 25.8093194042095 1.127680595790494
11.9542268652635 5.977680595790503 24.0727731347365
3.4666805957904927 0.7532268652634997 19.253226865263507
8.257226865263497 8.2237731347365 9.098680595790498
15.7633194042095 26.745226865263497 14.9267731347365
15.309773134736501 17.8017731347365 14.0637731347365
20.7257731347365 12.305680595790506 20.1062268652635
22.837226865263496 15.4337731347365 21.297773134736502
14.7072268652635 14.1407731347365 29.3347731347365
18.715226865263496 23.6887731347365 16.0522268652635
22.729226865263506 0.6286805957904988 9.5377731347365
2.914226865263501 17.3322268652635 9.3213194042095
29.7617731347365 25.2787731347365 10.035226865263503
10.356226865263501 21.0237731347365 28.622773134736498
23.0117731347365 10.7607731347365 26.3233194042095
11.642226865263503 23.151319404209502 13.242680595790503
7.510226865263498 12.138226865263498 24.235680595790498
22.280226865263494 4.6057731347365 21.1943194042095
15.206226865263496 8.443226865263505 26.9173194042095
21.617226865263497 18.315226865263504 3.2943194042094994
28.026226865263503 17.904226865263503 0.06122686526349952
27.1857731347365 25.9113194042095 32.1413194042095
16.0627731347365 0.7192268652635008 21.1877731347365
14.2382268652635 20.6477731347365 5.052680595790505
29.2623194042095 25.2072268652635 15.625680595790499
19.6977731347365 21.047680595790496 9.042226865263501
15.574226865263505 11.9997731347365 18.020226865263503
14.0737731347365 28.4373194042095 1.9532268652634954
22.970865673682496 17.7958656736825 31.1277731347365
31.913226865263503 28.514319404209502 14.017226865263503
25.6122268652635 16.5157731347365 14.900226865263498
6.0416805957904955 8.933773134736501 7.3237731347365
15.0617731347365 4.679680595790501 1.921773134736501
1.7856805957904953 18.343680595790502 5.511773134736501
27.898226865263503 6.5007731347365 17.849773134736502
7.049773134736501 7.1927731347365 30.4157731347365
24.5067731347365 14.470680595790498 8.559226865263504
6.4327731347365 19.5762268652635 11.315226865263504
30.7987731347365 17.8553194042095 6.870773134736501
18.465226865263496 31.980773134736502 5.470226865263498
23.633226865263502 27.288773134736502 3.607773134736501
30.0887731347365 20.960680595790507 24.601226865263506
9.0597731347365 29.765226865263493 30.284865673682503
13.9297731347365 12.6387731347365 3.3437731347365
11.470226865263498 12.531680595790505 21.6293194042095
5.8507731347364995 27.161226865263494 23.0167731347365
23.272226865263498 1.3212268652635046 27.6277731347365
11.6347731347365 14.592680595790497 7.836680595790497
17.2367731347365 27.446226865263505 2.5952268652634984
30.489226865263497 4.537226865263499 7.854773134736501
4.973773134736501 10.989226865263497 14.914226865263501
10.725226865263501 28.092226865263505 28.986773134736502
2.7172268652634983 21.5907731347365 25.785226865263503
4.901226865263503 16.753226865263507 30.1127731347365
2.1392268652635025 2.7047731347365005 24.5397731347365
11.8077731347365 22.5603194042095 0.5947731347365011
21.0927731347365 18.599226865263496 24.374680595790508
6.7897731347365 11.0317731347365 30.5342268652635
18.3257731347365 22.3202268652635 24.316226865263495
14.531226865263498 16.1217731347365 18.3677731347365
30.0612268652635 19.9467731347365 25.800773134736502
14.897680595790504 15.0717731347365 29.0937731347365
6.5107731347365 16.1997731347365 3.935680595790501
27.5726805957905 31.303226865263504 19.3713194042095
9.0057731347365 19.2847731347365 17.744226865263506
10.739226865263497 21.7777731347365 2.4322268652634946
10.1757731347365 9.2167731347365 20.200319404209502
24.310226865263495 24.766226865263498 12.7157731347365
30.0847731347365 16.9692268652635 10.305773134736501
1.1862268652634995 22.8477731347365 1.1506805957905044
31.253773134736498 1.3876805957904992 23.54168059579051
13.3077731347365 26.9993194042095 12.792226865263501
27.4693194042095 20.5097731347365 13.3167731347365
6.781226865263498 11.747773134736502 24.1187731347365
4.5653194042095 27.059773134736503 15.135226865263498
8.7857731347365 2.4872268652635015 17.569226865263495
27.807226865263495 13.144226865263498 3.8412268652635007
4.099226865263496 14.533319404209504 19.0313194042095
27.2883194042095 31.137226865263493 15.5486805957905
5.121226865263502 6.494226865263499 25.0953194042095
6.7177731347365 24.121226865263502 5.703226865263495
13.277319404209504 2.8722268652634995 7.0822268652635
19.123680595790503 26.607319404209502 4.0642268652635
16.2427731347365 17.3037731347365 11.4937731347365
24.678773134736502 13.5807731347365 15.872680595790499
25.0807731347365 24.2847731347365 20.0852268652635
28.7992268652635 22.6973194042095 8.6117731347365
25.0247731347365 22.433680595790506 8.243680595790494
20.0822268652635 22.8968656736825 28.4193194042095
4.900226865263498 29.6977731347365 2.3527731347365
10.862226865263501 3.2162268652635007 3.5172268652635026
29.4077731347365 9.566226865263495 1.735773134736501
21.4027731347365 11.5397731347365 6.3667731347364995
11.891226865263498 30.8457731347365 16.165680595790505
20.631226865263493 10.941319404209498 18.9037731347365
7.844773134736501 0.5947731347365011 20.5413194042095
31.1657731347365 0.6922268652634997 4.167226865263501
2.8027731347364995 24.5837731347365 24.220226865263506
20.024226865263493 0.10168059579049782 4.3077731347365
11.376680595790504 3.7337731347365004 22.149226865263493
10.668773134736501 15.411226865263501 18.257226865263497
6.406680595790505 19.894226865263498 0.8732268652634971
11.148773134736501 13.831773134736501 14.688226865263495
27.205226865263505 8.156680595790505 21.5333194042095
20.5653194042095 0.6612268652635009 17.0403194042095
18.6447731347365 29.0887731347365 32.1736805957905
31.9817731347365 20.788773134736502 10.764226865263502
28.4527731347365 27.7837731347365 21.2037731347365
26.3112268652635 29.1457731347365 10.285319404209499
16.101226865263506 6.407226865263503 31.493680595790508
5.005226865263502 19.7147731347365 9.2517731347365
29.6737731347365 8.4607731347365 23.205226865263505
27.501773134736503 2.3186805957904966 3.6022268652634963
8.1922268652635 17.1233194042095 3.471226865263496
9.465226865263496 20.953226865263495 29.3867731347365
23.1627731347365 22.1003194042095 6.652226865263501
23.051226865263494 13.504226865263497 1.2423194042094998
25.2807731347365 9.024773134736499 19.0726805957905
30.4417731347365 21.5347731347365 21.5847731347365
7.947226865263495 3.0633194042094978 15.6297731347365
7.0847731347364995 21.580226865263505 5.587226865263496
3.9237731347365 0.32668059579049213 17.4782268652635
15.3807731347365 12.7507731347365 22.128226865263507
2.8292268652635 15.236226865263497 7.240226865263502
19.1817731347365 15.4912268652635 7.245226865263497
14.095226865263498 19.5732268652635 19.6737731347365
28.7257731347365 26.390226865263493 22.8447731347365
11.492226865263497 28.5402268652635 8.2407731347365
25.0303194042095 11.654226865263503 28.744226865263506
29.4637731347365 9.325773134736501 15.2162268652635
11.212226865263496 15.1357731347365 13.793226865263499
11.232773134736501 27.7027731347365 29.808319404209502
11.4207731347365 1.5452268652635013 26.7617731347365
9.1627731347365 10.070680595790506 27.8367731347365
17.5847731347365 5.995226865263497 17.746680595790508
7.6266805957905035 11.0107731347365 28.8987731347365
1.194226865263495 18.2853194042095 30.5687731347365
18.297773134736502 31.023226865263503 4.219226865263501
29.1427731347365 1.7042268652635002 21.4313194042095
17.0953194042095 6.865226865263502 31.117773134736503
30.7663194042095 5.109226865263501 14.9927731347365
31.7012268652635 11.917226865263501 27.5253194042095
31.1973194042095 21.038226865263503 8.642226865263503
8.615226865263502 10.720680595790498 19.451134326317515
3.3592268652635013 0.07822686526349543 18.0597731347365
16.860226865263506 27.6127731347365 18.390226865263493
26.837319404209502 16.2222268652635 29.1063194042095
24.2577731347365 7.790680595790505 28.2237731347365
4.116134326317507 19.1772268652635 8.215226865263496
11.1247731347365 8.129226865263497 6.831773134736501
28.129226865263497 2.8247731347364997 9.858226865263497
17.459226865263496 21.127226865263502 21.654226865263503
26.4692268652635 10.728680595790493 5.220680595790498
13.1197731347365 22.9362268652635 13.4332268652635
23.0807731347365 3.9802268652634964 4.361226865263497
31.983226865263497 31.1927731347365 13.2897731347365
14.9542268652635 18.996226865263502 25.5247731347365
30.8473194042095 20.2782268652635 11.005226865263502
16.265226865263493 22.0937731347365 15.449680595790497
11.8137731347365 16.3202268652635 9.8243194042095
0.23022686526349645 11.8717731347365 29.763226865263498
20.411226865263494 28.6307731347365 23.285773134736502
4.672226865263504 11.8397731347365 12.113773134736501
6.5807731347365 21.0677731347365 0.33177313473650116
18.155226865263494 29.2227731347365 26.726680595790498
28.7467731347365 27.8407731347365 29.5877731347365
6.9487731347365 16.7047731347365 9.3757731347365
9.278226865263498 3.461226865263498 10.1252268652635
24.7767731347365 9.1706805957905 1.3107731347365004
11.808773134736501 3.637680595790499 4.745680595790503
24.655226865263494 26.8883194042095 16.474773134736502
13.6113194042095 20.083226865263505 26.938226865263495
21.608773134736502 8.767226865263503 10.452680595790497
1.0622268652635043 0.06568059579049645 24.3297731347365
19.4637731347365 17.2157731347365 16.2427731347365
14.380226865263502 15.420226865263501 12.2547731347365
16.194226865263495 13.3547731347365 18.0822268652635
26.9907731347365 4.1922268652635 19.3367731347365
29.5687731347365 20.911226865263494 3.3102268652634947
0.5477731347365005 29.2867731347365 15.105226865263496
31.7012268652635 26.181773134736503 1.0502268652635038
26.5366805957905 0.9357731347365004 5.526226865263503
13.466680595790493 10.7896805957905 31.991319404209502
16.282319404209503 2.2242268652634962 3.3116805957905058
12.044226865263504 32.062319404209504 14.251226865263497
10.159226865263498 11.514226865263502 6.924680595790505
6.0997731347365 9.0413194042095 22.6152268652635
17.0837731347365 27.2987731347365 16.5777731347365
0.15968059579050475 22.928226865263504 18.3377731347365
20.411226865263494 27.3103194042095 3.7727731347365
19.8707731347365 18.256226865263493 12.564319404209503
25.8917731347365 29.0797731347365 10.996226865263502
1.5302268652635007 15.6772268652635 0.5032268652634997
7.2572268652634975 20.176226865263494 17.9227731347365
32.0853194042095 12.0057731347365 25.400226865263498
8.7847731347365 12.142226865263503 7.1287731347365
6.121134326317502 20.9963194042095 17.8027731347365
26.869226865263506 8.1857731347365 20.819226865263495
26.4343194042095 1.4246805957905053 13.0217731347365
8.651773134736501 20.3483194042095 11.9787731347365
8.2727731347365 9.7543194042095 8.093226865263496
17.6167731347365 22.473226865263506 10.848226865263499
8.7102268652635 17.684226865263504 13.0377731347365
25.2777731347365 3.8722268652634995 26.5503194042095
1.5657731347365011 6.519680595790504 31.974773134736502
4.206773134736501 14.962226865263496 21.143226865263493
12.0546805957905 16.6097731347365 8.446226865263505
29.0467731347365 20.9607731347365 28.3352268652635
11.834226865263496 17.693226865263505 2.9162268652635035
1.1702268652635013 28.529226865263503 6.779226865263503
15.799226865263499 14.931226865263504 29.419773134736502
2.1192268652634993 4.486226865263497 31.4657731347365
14.2107731347365 30.9067731347365 15.9327731347365
0.8352268652635004 8.687226865263504 26.88368059579051
10.370226865263497 12.742226865263497 28.053773134736502
3.002226865263502 9.2807731347365 5.204680595790492
22.121680595790508 3.7582268652635022 31.2072268652635
11.061773134736502 9.505226865263502 18.401319404209502
5.494226865263499 7.650226865263498 25.498226865263497
1.9886805957904983 0.008226865263502248 11.3227731347365
31.1973194042095 26.193680595790497 0.7552268652635021
0.9792268652634988 9.703773134736501 27.8442268652635
8.6707731347365 11.497680595790499 3.7132268652635005
2.7506805957904987 23.5727731347365 13.232319404209502
7.175773134736501 18.7357731347365 18.143226865263493
14.010680595790504 7.079680595790492 5.418773134736501
30.995773134736503 28.1032268652635 26.9553194042095
31.502226865263502 27.648865673682508 6.147226865263498
22.1807731347365 32.1533194042095 22.633226865263502
28.529319404209502 11.6402268652635 6.338680595790493
27.1067731347365 25.7567731347365 4.6997731347365
10.492773134736499 14.2787731347365 21.4857731347365
0.664226865263501 3.6992268652635047 19.4707731347365
4.2132268652635005 25.720226865263506 18.887226865263493
0.5883194042095035 12.930773134736501 17.9147731347365
29.8957731347365 11.1327731347365 29.181226865263504
4.469773134736501 26.9727731347365 6.2407731347365
9.1567731347365 5.590226865263496 0.19068059579049645
16.700226865263495 28.062226865263504 15.6757731347365
19.956226865263496 27.217226865263505 9.3842268652635
15.2727731347365 4.145773134736499 28.441226865263495
30.8623194042095 13.836226865263498 27.939773134736498
4.535680595790495 31.0187731347365 20.2767731347365
8.464680595790497 29.7072268652635 29.2797731347365
13.7567731347365 0.5907731347364997 7.1087731347365
21.224226865263496 16.084226865263496 22.275226865263498
22.5467731347365 9.9677731347365 1.0137731347364998
23.8203194042095 11.9347731347365 26.0167731347365
20.728680595790507 28.847680595790507 22.7872268652635
24.5492268652635 19.166773134736502 31.0603194042095
12.9797731347365 25.180773134736498 27.4542268652635
28.3442268652635 19.605226865263496 18.696226865263505
10.208226865263498 11.961226865263498 8.065226865263504
31.2983194042095 9.892226865263503 29.119773134736498
13.3617731347365 15.3387731347365 13.2502268652635
0.4822268652634989 31.5267731347365 24.2053194042095
32.0777731347365 17.357319404209502 26.4627731347365
10.7807731347365 7.484226865263501 24.0017731347365
1.2032268652634954 30.2207731347365 12.8936805957905
4.7682268652635 26.9597731347365 22.2143194042095
31.632226865263497 4.305226865263499 7.2042268652635
19.407226865263503 4.476226865263499 13.0302268652635
30.061319404209502 9.985226865263499 1.711226865263498
13.988773134736501 25.050773134736502 10.9332268652635
27.2647731347365 10.729226865263499 21.7807731347365
30.9103194042095 19.7992268652635 12.212773134736501
7.151134326317504 9.9362268652635 20.420226865263494
21.8347731347365 17.5507731347365 9.191319404209498
5.119319404209502 12.175226865263504 25.357226865263506
12.887319404209503 25.5492268652635 12.187226865263504
16.4117731347365 19.4637731347365 18.9357731347365
8.335319404209503 16.5653194042095 0.2446805957904985
18.282226865263503 29.977226865263496 21.5522268652635
3.670134326317509 15.725226865263501 8.4803194042095
14.8457731347365 25.2083194042095 20.3532268652635
13.167226865263501 1.6867731347364998 16.5693194042095
19.2877731347365 29.0543194042095 16.317773134736502
24.345226865263506 13.455680595790497 2.9066805957905046
12.733226865263497 2.521134326317508 21.699134326317505
12.334773134736501 15.3867731347365 31.3666805957905
26.6307731347365 27.247226865263507 4.026226865263503
7.5267731347365 3.185680595790501 15.3273194042095
25.8592268652635 23.560226865263495 8.8153194042095
17.542226865263494 13.456226865263496 23.523319404209502
1.0212268652635004 9.099226865263496 27.902226865263493
5.057226865263495 0.24122686526349923 20.0597731347365
29.748773134736503 0.22577313473649951 23.0533194042095
24.2282268652635 29.928773134736502 8.921773134736501
2.322226865263495 2.533773134736501 11.788226865263503
9.6957731347365 21.849226865263496 30.5822268652635
31.393226865263493 18.2207731347365 12.319319404209498
22.6537731347365 14.5747731347365 2.7686805957904994
13.291226865263503 18.5637731347365 4.736226865263497
14.3627731347365 19.830680595790497 25.863773134736498
20.1937731347365 18.601226865263506 1.2607731347364997
4.634680595790499 19.089226865263505 25.2117731347365
30.0027731347365 10.6802268652635 32.1233194042095
1.0287731347365003 22.6883194042095 31.8597731347365
30.836226865263505 2.719680595790493 15.229226865263499
10.0667731347365 21.408226865263494 29.5792268652635
9.169226865263504 21.6062268652635 13.047226865263504
15.879226865263497 16.334226865263496 19.9117731347365
31.3967731347365 2.287680595790505 3.6226805957904986
5.748773134736501 11.272226865263498 22.8273194042095
2.982226865263499 18.6343194042095 14.150226865263498
25.0667731347365 10.1537731347365 2.566226865263495
19.486226865263497 21.376226865263497 9.618680595790494
1.3142268652634996 11.8157731347365 6.436319404209502
28.5937731347365 6.836680595790497 2.2842268652634985
19.7282268652635 5.9373194042095 31.3853194042095
13.697226865263495 23.3127731347365 5.036226865263501
0.4447731347365007 26.291773134736502 26.4103194042095
30.559773134736503 4.8902268652635 22.026226865263503
7.715226865263496 23.8413194042095 3.6352268652634976
5.290773134736501 5.020226865263503 27.2767731347365
11.344319404209504 4.0882268652635005 30.2767731347365
32.0657731347365 29.4482268652635 8.327226865263505
29.236773134736502 6.8017731347365 26.438226865263495
18.7072268652635 22.2027731347365 28.783226865263494
4.770226865263503 13.8747731347365 8.739680595790503
19.0703194042095 0.052680595790505436 27.2667731347365
19.016226865263498 29.9077731347365 28.1927731347365
0.2842268652634985 29.197226865263495 5.9917731347364995
6.426680595790501 10.0537731347365 24.2177731347365
23.797773134736502 16.401319404209502 7.418226865263499
28.176226865263494 13.1417731347365 24.4437731347365
27.8407731347365 25.0147731347365 31.38668059579051
22.7357731347365 22.581226865263496 18.782226865263503
14.109226865263501 26.786226865263494 21.7137731347365
17.2197731347365 6.254680595790504 12.929226865263495
21.2937731347365 10.767226865263503 6.785226865263503
21.0093194042095 11.1402268652635 17.7746805957905
22.4877731347365 9.3722268652635 9.949226865263505
20.2577731347365 12.2657731347365 29.585680595790507
6.553680595790496 5.495773134736501 11.9287731347365
16.112680595790508 19.768226865263493 14.6567731347365
25.551226865263494 26.584319404209502 3.1872268652635043
18.592226865263505 22.550226865263504 16.3523194042095
29.8577731347365 28.0473194042095 21.1227731347365
9.732773134736501 11.898226865263503 27.3907731347365
8.608226865263497 6.5957731347365005 28.983773134736502
2.654680595790495 5.280226865263501 20.7162268652635
7.115226865263502 8.157226865263503 23.8622268652635
0.32122686526350464 19.5597731347365 10.534226865263498
32.158226865263494 11.2377731347365 25.245773134736503
7.021773134736501 10.537226865263499 22.0987731347365
17.5427731347365 2.5596805957904962 19.4842268652635
27.971319404209503 3.4266805957905007 1.0363194042095039
20.596226865263496 10.179226865263495 22.2812268652635
9.297134326317504 9.590226865263496 19.709226865263496
0.9086805957905 19.468226865263496 11.1582268652635
26.1622268652635 0.5866805957904973 5.673226865263501
3.276226865263503 29.9507731347365 27.7012268652635
14.5087731347365 0.7547731347364994 22.8077731347365
24.5582268652635 21.943226865263505 11.9967731347365
4.642226865263503 15.343319404209499 4.478226865263501
14.426319404209497 31.559773134736503 11.052773134736501
6.569680595790501 26.328226865263495 2.0967731347365
2.4746805957905025 9.345680595790498 13.6147731347365
4.1087731347365 16.1533194042095 20.9903194042095
1.2612268652635024 10.8123194042095 20.840680595790502
20.9437731347365 23.1737731347365 10.4572268652635
12.551226865263494 24.7577731347365 11.223226865263499
3.4806805957905027 27.933773134736498 6.1736805957905005
29.680319404209502 29.2847731347365 29.7513194042095
17.582680595790507 13.8087731347365 8.874226865263502
6.132680595790504 29.2547731347365 27.9932268652635
28.9263194042095 7.4547731347365005 2.7582268652635022
6.2502268652635 30.867773134736503 13.911226865263501
4.962680595790502 14.9692268652635 9.007226865263497
5.971226865263496 24.098226865263506 5.249680595790494
17.1857731347365 14.791226865263503 31.334226865263496
11.0287731347365 31.1303194042095 16.8202268652635
23.0467731347365 0.6492268652635005 0.05022686526350384
0.2896805957905002 10.1317731347365 16.8123194042095
14.6616805957905 1.0126805957904992 25.0577731347365
31.4453194042095 9.606226865263501 14.7447731347365
17.018226865263493 21.4577731347365 8.578680595790502
8.7077731347365 2.2902268652634987 15.860226865263499
9.0077731347365 10.623680595790503 20.4027731347365
0.6252268652634996 26.7207731347365 1.5767731347365004
24.161226865263494 23.035226865263503 5.110680595790498
2.7512268652634972 6.044680595790496 1.3686805957904937
30.5453194042095 22.0457731347365 3.826680595790492
16.241226865263506 5.6492268652635005 0.7132268652635005
31.129226865263497 20.0817731347365 9.3752268652635
31.4123194042095 13.352226865263496 12.5007731347365
16.315226865263504 15.303226865263504 17.748226865263497
26.122319404209502 13.083319404209501 17.925226865263504
27.2167731347365 17.9477731347365 18.839226865263505
30.917226865263494 10.171773134736501 16.0297731347365
14.263226865263498 6.6197731347365 1.0837731347365
18.259226865263493 20.8297731347365 9.443226865263505
31.7677731347365 11.6367731347365 8.161226865263501
14.998226865263497 1.1972268652634952 15.163226865263503
22.0177731347365 8.9146805957905 10.1367731347365
20.0147731347365 10.296226865263499 22.0023194042095
20.5457731347365 15.7637731347365 22.3957731347365
14.5727731347365 15.151319404209499 17.263680595790504
14.2077731347365 25.100680595790507 10.719319404209504
16.038226865263503 19.217226865263505 25.3347731347365
20.155226865263494 25.869773134736498 12.6177731347365
29.8103194042095 4.000680595790499 14.2087731347365
14.603319404209504 16.544226865263504 12.837226865263496
21.6123194042095 0.48722686526350145 9.2607731347365
11.6677731347365 3.219773134736501 5.813226865263495
23.213865673682506 15.198319404209503 5.8235880568445
28.815680595790496 12.572319404209498 21.5857731347365
5.781226865263498 28.757226865263497 23.8887731347365
3.6362268652635024 0.24422686526349935 1.7302268652634964
14.104226865263499 4.4817731347365 1.837680595790502
10.2562268652635 27.578319404209502 1.5007731347364999
1.7947731347365004 19.5732268652635 23.648319404209502
13.068226865263505 31.5762268652635 25.2227731347365
3.7972268652635037 25.942680595790506 14.868226865263502
6.457773134736501 25.795226865263494 27.7163194042095
14.456226865263496 7.501226865263497 28.2128656736825
6.9747731347365 16.2997731347365 29.7653194042095
30.366319404209502 11.901319404209499 8.799773134736501
24.5957731347365 13.443680595790497 28.7203194042095
26.1323194042095 26.382226865263497 21.9667731347365
11.9632268652635 15.848680595790498 0.11768059579050316
24.151319404209502 5.8842268652635 16.8387731347365
7.199226865263505 16.2427731347365 26.3562268652635
22.059680595790496 26.5297731347365 8.4332268652635
15.6537731347365 5.280226865263501 25.1157731347365
24.5977731347365 10.575773134736501 2.8367731347365
7.357226865263499 15.520226865263503 27.7493194042095
11.6522268652635 21.150226865263498 19.889226865263502
21.5627731347365 31.0747731347365 20.5723194042095
0.5071343263175123 30.253226865263507 14.336680595790497
30.8247731347365 4.123226865263497 6.7407731347365
12.089226865263498 13.3007731347365 19.636226865263502
21.4602268652635 4.830680595790497 31.233773134736502
26.961226865263505 21.3297731347365 2.083680595790497
21.6993194042095 16.4927731347365 11.3337731347365
30.413773134736502 30.9193194042095 25.0307731347365
25.7872268652635 4.005773134736501 16.740680595790508
7.7377731347365 2.155773134736501 26.852226865263496
9.157680595790495 10.242773134736499 19.8077731347365
19.384226865263493 10.4912268652635 28.611773134736502
17.196226865263505 6.1087731347365 18.266226865263498
24.5043194042095 13.4026805957905 28.245773134736503
13.9817731347365 19.3016805957905 26.7583194042095
3.6732268652635014 8.870226865263497 4.233680595790503
20.6917731347365 0.3952268652635027 26.8987731347365
23.726226865263506 25.6417731347365 27.541773134736502
1.9366805957905058 7.540226865263499 1.0762268652635
0.20277313473649983 18.1147731347365 23.8257731347365
30.358773134736502 22.4907731347365 30.4677731347365
7.0336805957905 24.9087731347365 28.9627731347365
12.169226865263504 16.4083194042095 2.8252268652634953
17.7997731347365 2.7237731347365006 10.0387731347365
6.6462268652635 18.852226865263496 17.992226865263497
7.0732268652635 25.0372268652635 2.901226865263503
31.753319404209503 10.591319404209504 7.4292268652634945
29.122319404209502 31.8333194042095 9.761680595790494
15.8932268652635 6.6227731347365 13.1802268652635
10.858226865263497 30.768226865263493 26.3382268652635
13.337226865263496 9.918680595790505 30.646226865263493
25.107319404209502 10.7317731347365 3.7412268652634992
23.780226865263494 29.9697731347365 8.171319404209502
7.752226865263502 31.6487731347365 8.617773134736499
8.553226865263504 21.7157731347365 3.864680595790503
5.0037731347365 1.1352268652634976 19.1406805957905
29.602226865263496 10.5002268652635 1.2976805957904958
6.7797731347365 8.0487731347365 16.1547731347365
2.4677731347365004 5.2567731347365 31.5663194042095
30.883226865263502 20.077226865263505 21.8377731347365
8.437226865263504 6.732773134736501 30.595226865263506
1.4967731347365003 8.173226865263501 1.1482268652635028
11.7897731347365 7.0503194042095 24.4727731347365
24.8563194042095 25.9872268652635 31.5067731347365
24.108773134736502 23.6976805957905 13.035319404209499
7.2537731347365 6.026680595790495 31.7933194042095
32.0132268652635 14.079680595790492 23.9687731347365
28.049680595790505 30.0123194042095 17.550865673682495
4.903226865263498 7.482773134736501 11.622773134736502
20.269226865263498 7.2687731347365006 13.249226865263502
3.8216805957904967 12.578226865263495 29.800226865263504
26.605226865263496 24.4332268652635 25.5603194042095
0.15668059579050464 29.4787731347365 7.017226865263503
18.342226865263505 30.160773134736502 31.8347731347365
21.455226865263505 22.792226865263494 32.00622686526349
18.4677731347365 6.224226865263496 6.590226865263496
21.300773134736502 18.913226865263503 15.4677731347365
18.5063194042095 19.0747731347365 19.354680595790498
26.5857731347365 16.2757731347365 30.7203194042095
23.8247731347365 8.8947731347365 11.0276805957905
9.6237731347365 0.28522686526350327 12.358226865263497
29.6532268652635 10.291226865263503 21.8127731347365
9.0997731347365 20.4407731347365 13.0276805957905
25.9007731347365 26.7563194042095 4.284134326317513
26.4583194042095 11.198680595790506 27.369773134736498
26.3082268652635 26.788226865263503 4.758226865263502
21.691226865263495 19.883226865263502 16.1556805957905
25.180773134736498 25.7252268652635 12.7977731347365
3.533773134736501 21.7867731347365 2.417226865263501
21.997226865263507 2.9606805957904925 0.5792268652635002
25.863226865263506 6.5227731347365 30.3817731347365
21.379226865263497 10.7657731347365 19.8532268652635
12.8427731347365 7.293226865263499 8.5912268652635
13.607226865263499 0.38022686526350213 25.9537731347365
9.5067731347365 15.062773134736501 16.8232268652635
7.431226865263504 0.35822686526349656 11.5987731347365
1.5512268652634944 8.102226865263496 12.9317731347365
29.1047731347365 3.3652268652635016 10.8947731347365
5.7532268652635 7.841773134736501 22.9583194042095
6.2207731347365005 21.922226865263504 12.2887731347365
1.9067731347365005 21.471680595790502 4.113226865263499
17.398319404209502 11.386226865263502 23.3993194042095
20.203226865263495 30.400226865263498 12.0672268652635
22.0257731347365 18.5883194042095 11.299773134736501
17.4907731347365 10.974226865263496 28.866773134736498
15.6723194042095 13.121319404209498 6.738680595790498
15.2837731347365 8.9867731347365 29.696226865263505
28.1707731347365 18.5953194042095 0.6442268652634979
23.3107731347365 26.6813194042095 16.900226865263498
12.7767731347365 5.253680595790499 23.4272268652635
20.679226865263495 20.548226865263494 4.4056805957905
26.096226865263496 16.4687731347365 8.850319404209504
9.6567731347365 21.0107731347365 16.3816805957905
11.9467731347365 31.2567731347365 3.9872268652635015
9.942134326317515 21.708226865263505 26.8567731347365
15.3157731347365 8.4302268652635 17.7697731347365
15.0887731347365 16.7833194042095 11.049226865263499
5.735134326317507 13.093226865263496 24.9627731347365
18.6157731347365 4.780226865263501 12.5587731347365
21.096226865263496 17.0877731347365 14.9607731347365
5.027226865263501 27.7647731347365 18.2557731347365
31.5147731347365 16.8187731347365 23.702226865263505
21.777226865263493 2.421680595790505 0.10922686526350134
24.0942268652635 9.767773134736501 17.9633194042095
27.3543194042095 18.9122268652635 31.6427731347365
21.3703194042095 16.5927731347365 3.525226865263498
0.6382268652634977 22.3397731347365 18.206226865263496
2.9802268652634964 3.907226865263503 13.6477731347365
31.0983194042095 4.3202268652635 21.2987731347365
24.0337731347365 26.042226865263494 17.4417731347365
7.3777731347365005 0.5432268652634988 22.8473194042095
24.304226865263495 18.821226865263505 11.064319404209503
24.346226865263496 22.8636805957905 7.524773134736501
12.9477731347365 30.9103194042095 15.1413194042095
6.4833194042094995 27.4842268652635 23.518226865263493
28.930773134736498 25.6447731347365 22.2282268652635
19.2777731347365 29.872319404209502 8.481226865263501
1.139773134736501 11.556226865263504 7.305226865263499
3.6297731347364994 7.677226865263499 2.995226865263497
30.9017731347365 18.2872268652635 19.9017731347365
29.729226865263506 11.411226865263501 2.0552268652634993
16.5397731347365 6.7317731347365 0.42668059579050066
6.5672268652635 19.4242268652635 1.722680595790493
