4.968226865263496 3.4147731347364996 31.562773134736503
2.2412268652634992 19.8507731347365 14.900226865263498
19.8767731347365 7.9997731347365 18.1367731347365
1.0008656736825117 12.907226865263503 10.69413432631751
28.5347731347365 17.8767731347365 6.023226865263503
4.5967731347365 16.724773134736502 8.084226865263496
1.995226865263497 23.970226865263506 6.086226865263498
13.942680595790506 21.2893194042095 27.1937731347365
8.3437731347365 30.329680595790506 18.3816805957905
28.8537731347365 13.5777731347365 0.5702268652634999
14.619680595790499 16.2812268652635 26.620773134736503
0.00022686526349957603 1.9736805957904977 17.3797731347365
9.214680595790497 29.988226865263506 26.7872268652635
7.119226865263499 2.3842268652635 10.188319404209498
17.325226865263495 27.6527731347365 21.0207731347365
2.1997731347364997 10.042226865263501 17.0087731347365
30.551226865263494 4.0612268652634995 28.0787731347365
10.391226865263498 17.391680595790504 19.3112268652635
24.747773134736498 20.318226865263505 22.6783194042095
3.1147731347365006 23.7467731347365 30.116226865263506
18.432226865263495 4.404226865263503 1.1247731347365004
25.7716805957905 27.6387731347365 0.6391343263175031
3.825773134736501 0.5372268652634986 13.490226865263502
11.4662268652635 30.053773134736502 18.6037731347365
0.8992268652635005 26.4577731347365 24.6032268652635
14.4327731347365 5.550226865263504 9.2527731347365
4.433680595790506 9.8907731347365 16.1787731347365
4.175226865263504 1.2772268652635006 14.749226865263502
13.5942268652635 30.3843194042095 18.7312268652635
3.5127731347365003 13.967226865263498 8.732773134736501
0.6592268652634985 31.939773134736498 14.2427731347365
8.816680595790501 3.6092268652635013 10.804226865263495
31.7597731347365 23.1177731347365 31.9047731347365
25.242773134736503 29.6657731347365 25.9473194042095
16.253226865263507 5.4602268652635 2.4116805957905
23.775226865263498 24.7637731347365 28.8717731347365
23.6317731347365 11.730680595790503 11.327226865263505
9.359226865263501 5.6317731347365 3.235226865263499
19.3112268652635 29.5377731347365 6.306226865263504
26.3977731347365 19.6622268652635 28.3237731347365
9.051319404209497 14.581226865263496 17.7527731347365
6.863773134736499 11.943226865263505 8.7047731347365
27.814773134736498 2.5982268652634986 6.735226865263499
3.5442268652635036 18.5703194042095 14.483680595790503
10.4207731347365 5.4327731347365 30.211411943155497
14.104226865263499 26.4077731347365 18.1137731347365
1.4452268652634999 14.7237731347365 7.519226865263498
28.121226865263502 24.7327731347365 0.8636805957904983
16.8442268652635 28.8293194042095 28.898319404209502
2.658773134736501 2.0257731347365002 12.968226865263496
1.002226865263502 24.2233194042095 21.221226865263496
26.608773134736502 22.037865673682504 25.4157731347365
25.044680595790496 16.145226865263503 26.4602268652635
2.5852268652635004 18.8217731347365 11.2407731347365
9.2947731347365 28.795226865263494 6.849226865263496
26.922773134736502 14.103226865263501 1.1402268652635001
1.8206805957905061 18.2597731347365 12.810226865263495
28.156680595790505 28.9427731347365 22.816226865263495
0.6766805957905007 19.7037731347365 2.065773134736501
3.404226865263503 23.3233194042095 18.4967731347365
16.927680595790505 23.413773134736502 19.121226865263502
5.044226865263504 25.375773134736498 30.3997731347365
12.214226865263498 30.0327731347365 27.560226865263495
18.3193194042095 5.3722268652634995 31.4123194042095
10.2627731347365 30.538226865263503 28.1247731347365
1.607226865263499 23.5067731347365 17.1952268652635
20.3317731347365 14.843319404209499 12.816226865263495
7.3322268652635 28.476226865263506 4.377680595790494
11.7657731347365 19.3837731347365 17.459319404209502
29.0457731347365 25.895319404209502 26.113773134736498
9.691680595790501 13.734319404209504 30.5818656736825
22.0517731347365 2.870226865263497 8.4387731347365
15.522680595790504 26.530226865263494 6.214226865263498
11.482680595790498 29.569226865263495 26.428226865263504
23.1433194042095 21.6772268652635 11.9167731347365
25.4487731347365 14.545226865263501 31.5937731347365
7.797226865263504 23.342680595790497 13.919680595790496
2.921773134736501 1.0357731347365 10.0367731347365
27.2113194042095 21.792226865263494 25.2162268652635
10.386226865263502 3.651226865263503 1.264773134736501
11.4707731347365 9.806226865263504 7.3907731347365
26.678773134736502 24.908226865263494 31.8247731347365
16.763226865263498 10.752680595790494 21.1343194042095
1.8102268652634947 10.275226865263498 5.739226865263497
24.2467731347365 21.2493194042095 6.020773134736499
14.799773134736501 20.3537731347365 9.990226865263502
18.305319404209502 11.211226865263498 10.639773134736501
28.2773194042095 20.953319404209502 26.434226865263504
17.1237731347365 11.3662268652635 31.861773134736502
24.8877731347365 1.1112268652634967 7.178226865263504
4.593226865263496 15.6177731347365 25.8577731347365
27.650226865263498 20.6277731347365 21.1177731347365
31.0702268652635 23.3907731347365 10.004226865263497
0.6536805957905045 11.023773134736501 26.122773134736498
5.4777731347365 2.1906805957904965 32.0387731347365
8.620773134736499 25.8467731347365 16.753226865263507
13.4893194042095 8.743226865263502 22.1517731347365
24.41686567368251 26.5517731347365 11.698680595790506
5.2787731347365 9.5947731347365 19.4077731347365
16.267226865263503 27.9572268652635 5.395773134736499
21.123226865263497 25.5057731347365 27.2932268652635
23.8063194042095 21.4477731347365 12.434773134736501
21.4953194042095 15.019226865263498 4.964226865263498
27.3513194042095 17.772680595790504 22.0243194042095
27.3412268652635 26.3477731347365 1.3512268652634987
22.9367731347365 20.703226865263495 5.5726805957905015
4.561680595790506 22.964226865263505 0.21168059579049725
19.389226865263502 19.71213432631751 1.5713194042095004
26.5663194042095 29.1937731347365 21.269226865263498
27.7207731347365 31.4417731347365 26.045226865263494
16.7897731347365 3.421226865263499 6.0287731347365
7.251226865263497 29.5432268652635 18.206226865263496
6.910226865263503 4.932226865263495 30.627226865263502
29.562226865263504 17.7282268652635 3.0922268652634983
30.3997731347365 12.720226865263498 1.1452268652635027
23.521226865263493 21.0127731347365 13.9997731347365
14.0697731347365 31.2743194042095 28.9733194042095
20.8262268652635 2.3952268652635027 8.394226865263498
3.9842268652635013 21.6802268652635 16.688226865263495
7.156319404209501 7.079680595790492 2.5873194042094987
24.745773134736503 2.9296805957905008 6.740226865263502
5.8812268652635 1.5782268652634954 14.017226865263503
7.657680595790495 21.0077731347365 8.0617731347365
22.5167731347365 28.4373194042095 7.479226865263499
29.482319404209502 16.8413194042095 23.9637731347365
10.0302268652635 28.7227731347365 30.3233194042095
15.174226865263499 20.9077731347365 12.678226865263504
6.5672268652635 7.845226865263498 17.8502268652635
29.604226865263506 24.946226865263505 0.8607731347365011
4.697226865263495 25.4997731347365 8.800226865263504
13.555680595790506 18.3057731347365 17.078226865263495
5.5477731347365005 4.986226865263497 2.604226865263499
13.4427731347365 25.0343194042095 30.2902268652635
9.8082268652635 29.7593194042095 26.8453194042095
25.4613194042095 9.779226865263503 5.064680595790506
31.0273194042095 28.5257731347365 14.861226865263497
5.3077731347365 13.129680595790504 10.242773134736499
11.8337731347365 17.6977731347365 25.5577731347365
4.510680595790504 26.7787731347365 6.6667731347365
6.1057731347365 12.898226865263503 11.3632268652635
18.166773134736502 9.607226865263499 24.804226865263495
6.569773134736501 22.774226865263493 9.0306805957905
8.014226865263502 9.709226865263496 27.012226865263493
20.8707731347365 4.6932268652635045 32.1707731347365
6.1357731347365 15.0642268652635 9.971226865263496
1.1792268652634945 15.9863194042095 17.1147731347365
10.8007731347365 27.4133194042095 29.8357731347365
17.2687731347365 28.729226865263506 10.581226865263496
20.193226865263505 24.3197731347365 30.038773134736502
17.6077731347365 3.1097731347365 31.7773194042095
1.8752268652634996 25.851226865263506 8.111226865263497
0.21868059579050225 10.5407731347365 10.5037731347365
11.9727731347365 10.958319404209501 5.179680595790501
3.816226865263495 8.583226865263498 16.4307731347365
13.322226865263495 30.108226865263497 15.328226865263495
13.929226865263495 4.3497731347365 7.3177731347365
0.5232268652635028 25.869773134736498 12.1282268652635
23.678773134736502 7.4687731347365 20.1247731347365
28.649226865263493 13.303226865263504 31.5787731347365
13.3817731347365 15.4127731347365 15.028319404209501
25.422773134736502 16.7487731347365 23.6963194042095
6.895226865263503 13.3932268652635 8.709680595790502
26.492773134736503 21.663773134736502 14.160226865263503
27.3807731347365 17.712680595790502 2.4366805957905058
1.0472268652635037 24.870773134736503 14.8292268652635
24.783226865263494 21.6297731347365 14.9107731347365
17.310226865263495 6.860773134736501 3.9236805957905005
20.055319404209502 15.857680595790498 11.1307731347365
4.0092268652635 11.318226865263505 4.496226865263502
23.992226865263497 20.6617731347365 12.7767731347365
10.580226865263505 20.2297731347365 16.3427731347365
3.3382268652635005 16.0377731347365 8.074226865263505
27.2257731347365 8.8643194042095 18.7283194042095
9.104226865263499 1.8626805957904935 8.0037731347365
18.4697731347365 6.2562268652635 2.165680595790505
21.797773134736502 8.588773134736499 16.8047731347365
29.497773134736498 28.239226865263497 24.7757731347365
3.664226865263501 27.597680595790507 5.722773134736499
19.3823194042095 9.691680595790501 23.377226865263502
0.4907731347365001 12.428226865263504 10.570319404209503
26.8597731347365 28.383865673682507 18.019680595790504
20.227773134736502 25.858226865263497 31.227773134736502
27.2043194042095 12.185680595790501 3.5452268652635013
14.2132268652635 6.171226865263499 24.498226865263497
28.7997731347365 17.721226865263496 3.2737731347364996
1.0897731347365003 18.450226865263495 14.752226865263502
26.7747731347365 20.0897731347365 26.527226865263493
17.471226865263496 28.3013194042095 28.9003194042095
26.143226865263493 21.2657731347365 14.8677731347365
7.9067731347365005 27.4176805957905 16.032226865263503
20.5193194042095 21.8677731347365 6.1222268652634995
16.0312268652635 15.8237731347365 0.2537731347365
13.7687731347365 26.7547731347365 32.0087731347365
10.827226865263505 13.8052268652635 18.3592268652635
4.807680595790501 0.09022686526349588 12.078773134736501
26.1062268652635 26.6097731347365 18.372226865263507
23.243680595790508 24.4253194042095 30.655226865263494
1.289226865263501 22.3177731347365 14.059773134736501
2.097226865263501 13.527773134736501 7.712226865263496
6.822226865263495 24.7883194042095 0.32577313473650094
27.9923194042095 6.5032268652635 19.9362268652635
1.5612268652634995 21.5147731347365 15.719773134736501
22.261226865263502 11.2517731347365 4.4476805957905015
8.306226865263504 3.0582268652634994 0.3947731347365
10.2257731347365 24.2217731347365 22.0557731347365
24.3483194042095 18.8167731347365 22.565226865263504
1.8507731347364995 26.9487731347365 31.4662268652635
26.882226865263497 14.8427731347365 4.755680595790494
12.265134326317508 17.4447731347365 27.4493194042095
17.870680595790503 28.1557731347365 9.055680595790506
5.341226865263501 10.322319404209498 18.5912268652635
28.2957731347365 18.309226865263504 3.4762268652634987
8.0617731347365 5.648226865263503 1.9272268652634992
12.501226865263497 17.956226865263496 19.605226865263496
3.5572268652634946 11.6097731347365 17.397680595790504
0.5337731347365011 13.7507731347365 9.3797731347365
19.440680595790496 8.025226865263498 24.257226865263497
29.523226865263503 26.1793194042095 22.023319404209502
15.4127731347365 17.842226865263505 26.3927731347365
25.331319404209502 14.3172268652635 2.4032268652634983
4.901680595790495 23.2342268652635 28.7403194042095
8.421773134736501 28.322226865263495 5.661226865263501
16.0367731347365 24.1497731347365 21.3427731347365
8.589680595790497 27.6017731347365 21.8472268652635
16.696865673682495 9.4302268652635 23.4327731347365
0.7642268652635025 1.2802268652635007 16.7872268652635
26.607226865263506 13.696226865263505 0.48277313473650096
18.7637731347365 8.734680595790493 15.392773134736501
29.0757731347365 14.8046805957905 31.524226865263493
29.381226865263493 6.316680595790501 21.277226865263493
25.8947731347365 2.959680595790502 5.4867731347365005
18.515226865263493 27.5763194042095 28.958226865263505
14.6556805957905 24.7173194042095 30.050773134736502
13.522319404209501 18.8503194042095 28.6503194042095
4.702226865263505 1.7067731347365012 11.43513432631751
27.9812268652635 14.3872268652635 1.0582268652634994
24.669773134736502 6.5037731347365 11.087226865263496
26.1827731347365 1.661226865263501 6.9327731347365
30.176226865263494 16.128226865263507 15.816319404209498
10.793226865263499 17.3397731347365 18.9093194042095
14.3387731347365 18.7117731347365 26.6862268652635
30.8533194042095 13.122319404209502 1.3866805957904944
14.636226865263502 14.731226865263501 3.0042268652634974
26.413226865263503 18.6682268652635 18.8457731347365
29.241226865263506 29.099226865263496 23.8547731347365
13.5057731347365 19.9517731347365 3.716773134736501
6.981226865263501 1.1392268652635025 12.934226865263504
2.674226865263499 26.3937731347365 16.4277731347365
26.992226865263497 15.6927731347365 24.0667731347365
8.813226865263495 0.1336805957904943 10.162226865263499
24.7817731347365 19.2282268652635 27.431865673682495
30.575319404209502 18.4203194042095 23.209319404209502
16.1867731347365 16.9187731347365 5.295226865263501
27.1733194042095 11.0677731347365 2.6777731347364995
29.117773134736503 17.745226865263497 20.459226865263496
28.0457731347365 10.3537731347365 25.179226865263495
5.6227731347365 11.1582268652635 10.181226865263504
7.959226865263496 6.292226865263501 3.167226865263501
3.7776805957904998 2.414226865263501 7.599226865263496
28.0957731347365 16.4056805957905 1.3017731347365
16.9657731347365 10.665226865263499 24.4512268652635
23.0642268652635 23.008226865263502 5.856226865263501
22.8592268652635 21.5333194042095 13.9367731347365
24.220134326317506 21.4667731347365 24.8627731347365
19.8047731347365 9.6417731347365 26.5977731347365
23.2677731347365 25.6383194042095 28.90768059579051
28.120226865263497 24.5077731347365 0.0746805957904968
24.9237731347365 19.703319404209502 13.2237731347365
8.5157731347365 27.457680595790507 5.936680595790506
28.127226865263502 17.616319404209502 23.7903194042095
8.359319404209504 13.9867731347365 15.0182268652635
16.738226865263506 14.277319404209504 1.8566805957904933
23.0237731347365 22.9457731347365 11.9907731347365
7.869226865263499 25.017226865263503 16.196226865263505
6.368226865263502 6.5726805957905015 0.6337731347365008
28.374680595790508 15.9737731347365 2.1927731347365
16.4027731347365 7.739226865263497 3.0057731347365007
6.4357731347365 11.0092268652635 8.593319404209499
25.890226865263493 0.5782268652634954 4.057680595790501
7.182226865263495 3.2486805957905034 2.0967731347365
23.7113194042095 5.535680595790495 7.1887731347365005
27.628226865263507 9.568226865263505 11.7397731347365
7.992773134736501 1.8047731347365001 31.876773134736503
23.5792268652635 15.059226865263504 5.3507731347364995
30.3337731347365 29.230773134736502 32.0253194042095
24.268226865263493 20.5762268652635 27.5213194042095
22.119226865263506 25.950319404209502 31.0582268652635
25.1317731347365 20.9953194042095 14.601226865263499
10.743226865263502 5.408773134736501 14.5547731347365
10.6637731347365 1.6657731347365008 1.0252268652634982
1.3637731347364994 23.232319404209502 23.348680595790498
7.871226865263502 22.8363194042095 0.8482268652634986
7.551226865263494 14.8517731347365 30.9627731347365
27.7137731347365 12.412226865263499 4.005226865263502
2.5286805957905045 26.920226865263494 29.7317731347365
6.9617731347365 31.595226865263506 8.159226865263498
1.7132268652635005 31.8417731347365 13.023773134736501
22.9997731347365 22.3682268652635 11.8277731347365
16.641226865263498 25.5677731347365 27.939773134736498
11.2177731347365 15.128319404209503 28.4893194042095
18.169226865263504 25.923226865263494 16.541773134736502
10.370773134736499 17.8413194042095 16.369226865263506
3.580226865263505 12.730226865263496 15.7797731347365
20.271226865263493 25.5027731347365 31.863226865263506
19.1706805957905 29.3247731347365 31.169226865263504
12.2027731347365 14.122319404209502 25.4687731347365
5.761680595790494 5.4297731347365 32.1007731347365
2.3987731347364996 28.7077731347365 0.5577731347365003
4.790773134736501 25.9427731347365 8.2162268652635
9.6537731347365 4.193680595790497 30.7547731347365
20.212226865263496 19.5217731347365 29.7797731347365
3.498226865263497 28.1523194042095 31.2932268652635
4.921680595790505 22.113226865263506 31.601226865263506
0.34422686526350077 18.6507731347365 17.1712268652635
11.6347731347365 18.5457731347365 26.550226865263504
2.2307731347365003 15.4307731347365 8.622680595790499
17.6003194042095 14.1907731347365 0.3083194042095023
16.1777731347365 32.155226865263494 15.971226865263496
20.0397731347365 24.628319404209503 30.452226865263505
17.1077731347365 22.105773134736502 20.608680595790503
23.2433194042095 10.157226865263503 18.366226865263506
16.384226865263493 14.894226865263498 11.806773134736499
19.1837731347365 23.565226865263504 30.241773134736498
24.8472268652635 15.828773134736501 25.1347731347365
7.089226865263498 3.4707731347365005 31.3903194042095
10.058773134736501 6.072319404209498 31.177319404209502
5.946680595790497 8.079680595790492 31.9687731347365
3.5982268652634986 26.1173194042095 31.9617731347365
6.670226865263501 24.2717731347365 25.429226865263495
9.990680595790494 21.7143194042095 25.048226865263494
25.9722268652635 9.2867731347365 21.5097731347365
6.435680595790501 14.034226865263498 7.559226865263504
11.8262268652635 29.3987731347365 29.805319404209502
16.3347731347365 26.7177731347365 16.9047731347365
17.1807731347365 27.186773134736498 21.17013432631751
7.1496805957905 23.678226865263504 24.681226865263504
25.9097731347365 4.729773134736501 19.5163194042095
12.7887731347365 18.742680595790503 17.891226865263498
14.8427731347365 24.648226865263503 19.7803194042095
5.963680595790493 13.413226865263503 7.9392268652635
29.3167731347365 16.4547731347365 26.640226865263493
25.497773134736498 4.543226865263499 10.282226865263503
12.741680595790498 30.643865673682498 28.584226865263496
29.033226865263494 28.7573194042095 2.7856805957904953
8.1826805957905 12.3967731347365 0.5942268652635008
8.4227731347365 30.3523194042095 5.168680595790505
8.5227731347365 14.354226865263499 17.256773134736502
17.3757731347365 7.585773134736501 12.8662268652635
14.0732268652635 28.9813194042095 27.093226865263496
3.886773134736501 21.8047731347365 29.5043194042095
4.3892268652635025 5.684226865263504 25.1277731347365
1.7397731347365006 0.5906805957905021 13.7472268652635
6.159680595790505 18.6277731347365 31.7233194042095
26.358680595790503 29.145319404209502 0.3012268652634944
3.178226865263504 18.3123194042095 28.232319404209502
25.1917731347365 13.220226865263498 31.674319404209502
3.0202268652635027 10.196226865263505 7.4137731347365
25.6517731347365 2.8367731347365 10.1017731347365
31.7317731347365 4.1857731347365 14.8936805957905
10.359226865263501 2.178226865263504 1.7217731347365
9.6903194042095 30.890226865263493 30.1977731347365
26.631226865263493 6.151680595790495 8.799226865263499
23.6217731347365 2.6186805957904937 6.3782268652635
9.2177731347365 7.633773134736501 31.2372268652635
1.7592268652635 28.6547731347365 0.6646805957905002
25.0183194042095 7.743680595790494 19.163226865263503
27.5197731347365 26.6633194042095 23.6107731347365
2.3237731347365003 20.1507731347365 11.2607731347365
29.7557731347365 15.2047731347365 31.370773134736503
27.3333194042095 28.773319404209502 26.9512268652635
2.6506805957905044 21.8317731347365 18.0617731347365
9.193134326317505 0.36222686526350145 8.723680595790498
20.889226865263502 22.3197731347365 7.5037731347365
0.4792268652634988 14.172226865263504 6.427319404209502
16.533226865263494 28.0887731347365 5.806226865263504
25.3327731347365 15.846226865263496 23.2527731347365
25.6317731347365 3.4462268652635046 8.619680595790499
7.485226865263499 12.1157731347365 27.6007731347365
30.8427731347365 18.2097731347365 2.6336805957904943
2.995773134736501 10.897226865263498 6.5257731347365
2.3726805957904986 21.913773134736502 12.769226865263498
6.5157731347365 25.395226865263503 24.227226865263496
16.179226865263495 24.6277731347365 22.3747731347365
15.4097731347365 26.1742268652635 20.0037731347365
13.820319404209503 15.8153194042095 24.4607731347365
16.9017731347365 26.322226865263495 9.675680595790496
27.6097731347365 9.588319404209503 1.0042268652634974
0.5652268652635044 3.3186805957904966 3.3322268652635003
12.3837731347365 20.5818656736825 27.5107731347365
29.2023194042095 17.6357731347365 25.0822268652635
6.57186567368251 23.1047731347365 26.1313194042095
7.130226865263502 4.1167731347364995 0.44768059579050146
5.7347731347365 9.891226865263498 14.357773134736501
31.8382268652635 28.1557731347365 25.4327731347365
6.6607731347365 3.056226865263504 11.497773134736502
9.5972268652635 27.363773134736498 4.652773134736501
6.793226865263499 1.7407731347365 9.874226865263502
1.8956805957904947 22.110319404209502 16.608226865263497
13.7657731347365 28.4797731347365 29.1377731347365
24.872319404209502 7.644226865263498 18.642226865263503
17.7047731347365 14.1787731347365 32.0747731347365
6.874226865263502 1.2946805957904957 10.5417731347365
25.9017731347365 30.878773134736498 25.133226865263502
10.360773134736501 29.4223194042095 26.381226865263493
2.8626805957904935 8.8477731347365 15.3093194042095
2.5682268652635045 8.825319404209498 19.2223194042095
26.6767731347365 17.363134326317507 2.5677731347365
24.3592268652635 22.0402268652635 16.361226865263497
10.986226865263497 24.372773134736498 22.598226865263506
1.4736805957904977 0.7537731347365 14.130226865263502
3.2207731347365005 25.884226865263493 15.726226865263499
24.7107731347365 9.5912268652635 2.1256805957904987
27.3652268652635 16.9537731347365 27.055773134736498
2.2956805957905004 0.3942268652634979 10.956773134736501
24.689319404209503 10.099226865263496 20.6592268652635
9.0027731347365 16.3046805957905 17.163226865263503
15.2337731347365 15.3493194042095 28.259226865263493
7.7527731347365005 30.715226865263496 7.965226865263496
8.6287731347365 16.163773134736502 16.1337731347365
27.0792268652635 29.474773134736502 2.4632268652635005
20.247226865263507 9.696226865263505 17.942773134736502
8.7377731347365 32.0493194042095 26.1367731347365
9.739680595790503 27.0642268652635 15.256680595790499
3.729226865263499 2.9266805957905007 9.575680595790502
0.8607731347365011 4.5822268652635 23.520319404209502
1.2062268652634955 21.428773134736502 15.358226865263497
10.204319404209503 17.6413194042095 18.489226865263497
1.1302268652635021 17.223226865263506 13.715680595790502
22.3137731347365 1.5102268652634976 9.1097731347365
7.642773134736501 2.415773134736501 31.2713194042095
13.1462268652635 0.897226865263498 14.967226865263498
26.596226865263496 16.008226865263502 4.7767731347365
9.7802268652635 12.8047731347365 16.3977731347365
4.1477731347365 9.5857731347365 6.124319404209498
28.3163194042095 16.0383194042095 23.843226865263496
4.326680595790492 31.858773134736502 10.1402268652635
11.1162268652635 16.4957731347365 26.825319404209502
23.8517731347365 26.188226865263495 30.936773134736498
28.0513194042095 30.1567731347365 22.9513194042095
26.605773134736502 20.272226865263498 19.6137731347365
14.587226865263496 19.644226865263498 27.0667731347365
6.7097731347364995 21.4437731347365 29.8947731347365
27.4937731347365 25.0283194042095 30.3292268652635
24.003226865263507 4.155773134736501 7.258773134736501
16.4707731347365 30.852773134736502 29.620773134736503
27.220226865263506 12.029226865263503 4.415773134736501
22.523041787371483 28.597865673682506 0.664226865263501
7.495773134736501 26.230773134736502 14.796226865263499
13.3327731347365 4.2246805957905025 6.431773134736501
29.489773134736502 28.9527731347365 3.4636805957904926
26.9247731347365 29.251226865263497 25.9447731347365
22.9843194042095 12.385226865263498 4.356680595790493
17.9478656736825 5.985773134736501 30.7432268652635
4.902226865263501 6.7102268652635 0.4362268652634995
9.787226865263499 26.5877731347365 23.9633194042095
3.5782268652634954 23.122865673682497 30.166773134736502
1.192680595790506 27.791773134736502 8.8442268652635
10.376226865263497 24.2137731347365 22.8257731347365
1.5987731347365006 19.307226865263495 15.667226865263501
4.959226865263496 13.4457731347365 8.7957731347365
29.5137731347365 11.3487731347365 31.9923194042095
27.0717731347365 6.748226865263497 18.2387731347365
14.438226865263495 31.9673194042095 19.486680595790503
25.5437731347365 17.4763194042095 25.9463194042095
1.703773134736501 1.2536805957904988 12.9427731347365
13.3267731347365 17.6727731347365 1.8467731347365
18.9572268652635 8.960319404209503 25.848226865263506
5.526226865263503 9.398226865263503 7.3626805957904935
1.5332268652635008 25.3322268652635 3.9047731347365
9.7087731347365 18.5797731347365 18.294226865263504
20.7097731347365 14.0937731347365 11.349226865263496
29.0687731347365 29.2237731347365 26.989226865263497
20.0043194042095 26.8827731347365 30.375773134736498
3.3426805957904975 3.9402268652635044 0.4937731347365002
6.597773134736499 27.189773134736498 23.104226865263506
8.4067731347365 26.068226865263505 25.2263194042095
20.9813194042095 20.575319404209502 15.6947731347365
9.1847731347365 25.251773134736503 5.6547731347365
21.9797731347365 19.9723194042095 20.468226865263496
31.7863194042095 26.744226865263506 21.6747731347365
11.232773134736501 15.066680595790501 15.5672268652635
4.1737731347365 17.8617731347365 29.564773134736498
23.404226865263503 12.799773134736501 4.239680595790503
11.2562268652635 17.5807731347365 20.083226865263505
9.2807731347365 0.8782268652634997 27.0093194042095
15.1222268652635 23.9517731347365 17.845226865263506
25.035773134736502 20.078226865263495 14.0302268652635
27.7937731347365 29.9847731347365 22.3637731347365
1.6336805957904943 19.0247731347365 13.884319404209503
4.3467731347365 14.8107731347365 6.3202268652635
2.052226865263499 18.247226865263507 12.356226865263501
13.435226865263495 14.0272268652635 16.4057731347365
19.0077731347365 28.053226865263504 5.900680595790504
9.1492268652635 20.4872268652635 16.320773134736502
10.1097731347365 25.8387731347365 23.634226865263493
18.5522268652635 29.4657731347365 6.775226865263498
31.407226865263503 16.882226865263497 0.2517731347365011
8.172226865263504 0.16822686526349884 26.876773134736503
11.5647731347365 3.5982268652634986 0.7067731347365012
1.0276805957904998 11.188226865263495 27.5912268652635
1.1716805957905052 31.4997731347365 13.242226865263497
5.091773134736501 9.876680595790504 7.8313194042094985
15.247680595790499 17.0277731347365 25.675773134736502
25.342226865263505 13.601226865263499 3.5256805957905044
28.2902268652635 10.401226865263503 3.208226865263498
17.419773134736502 29.3877731347365 16.142226865263503
31.314773134736498 25.6827731347365 23.6547731347365
13.733226865263497 29.328319404209502 19.6182268652635
5.113680595790498 3.3951343263175033 13.209773134736501
9.6552268652635 13.107773134736501 15.5037731347365
2.2942268652635036 11.516680595790504 9.3477731347365
2.6327731347364995 18.0312268652635 12.787865673682504
8.385226865263498 9.6162268652635 26.0437731347365
0.4766805957904978 14.8307731347365 6.863226865263499
21.9087731347365 26.9567731347365 28.546680595790505
24.257226865263497 15.927680595790505 1.0372268652634986
30.1657731347365 26.055773134736498 21.316226865263495
8.162226865263499 5.495226865263497 29.2677731347365
20.611773134736502 24.374226865263502 0.13222686526349747
6.152226865263501 13.067680595790506 10.4527731347365
16.998226865263497 11.920226865263501 10.873226865263497
14.2197731347365 5.441773134736501 8.328319404209498
14.153226865263498 18.9877731347365 29.4507731347365
30.294680595790496 26.5047731347365 31.0147731347365
21.785226865263503 26.485226865263506 29.2167731347365
19.5732268652635 8.334773134736501 22.7012268652635
12.502226865263502 15.7132268652635 16.8097731347365
26.8167731347365 6.741680595790498 9.264680595790495
14.0227731347365 7.342226865263498 24.0377731347365
0.2907731347365008 11.764226865263502 8.093226865263496
5.293226865263499 28.0277731347365 30.578226865263495
2.2572268652634975 2.0516805957905007 16.649226865263493
15.868226865263502 3.786226865263501 7.075319404209498
25.196226865263505 11.6957731347365 0.739680595790503
15.562226865263504 18.4637731347365 26.6092268652635
3.840680595790502 26.973226865263506 30.996680595790508
18.1983194042095 26.910226865263503 16.2967731347365
4.136226865263502 13.135226865263498 17.352773134736502
20.7767731347365 21.8442268652635 8.401226865263503
15.517773134736501 26.453226865263495 8.412134326317513
4.505226865263502 26.041226865263503 5.2367731347365005
14.648680595790495 15.9297731347365 25.514226865263502
19.919773134736502 4.245226865263497 0.44877313473650027
27.051226865263494 28.512226865263493 22.9517731347365
26.599773134736502 20.0127731347365 25.8797731347365
25.9077731347365 2.581680595790502 9.6707731347365
22.8833194042095 7.2836805957905 9.0287731347365
18.4407731347365 25.9017731347365 19.5077731347365
3.8372268652634958 5.686680595790506 24.0107731347365
17.8937731347365 7.244226865263499 1.7562268652634998
11.467226865263498 15.9553194042095 12.3457731347365
13.166226865263503 24.7677731347365 18.264226865263502
7.008680595790494 10.281226865263498 16.674319404209502
13.0762268652635 15.0617731347365 25.558773134736498
18.0642268652635 15.560319404209498 11.831411943155501
25.4587731347365 28.608773134736502 2.228226865263501
21.654226865263503 15.0702268652635 24.875226865263507
9.764773134736501 1.9477731347365008 0.4542268652635002
25.9302268652635 12.0487731347365 30.619226865263506
1.0372268652634986 11.377680595790494 25.554226865263495
10.199226865263505 27.3807731347365 28.405226865263494
25.1437731347365 21.6922268652635 15.7412268652635
26.558773134736498 3.776226865263503 9.476226865263499
25.7067731347365 28.3843194042095 18.9407731347365
7.339680595790497 11.5837731347365 31.2807731347365
4.5486805957905005 12.636319404209498 17.3417731347365
25.157319404209503 3.9657731347364997 18.8973194042095
25.0313194042095 9.991319404209502 18.1562268652635
25.983773134736502 15.674226865263499 0.06522686526350441
5.352226865263496 3.9772268652634963 8.0777731347365
30.602226865263496 3.8277731347365 28.741773134736498
16.351226865263506 19.8837731347365 27.6967731347365
9.285226865263503 24.800773134736502 21.381226865263493
9.622773134736502 28.0717731347365 12.8022268652635
11.308134326317514 16.7293194042095 16.601411943155497
27.7327731347365 15.8707731347365 0.7866805957905001
21.8413194042095 9.111226865263497 16.6097731347365
18.9097731347365 24.901319404209502 29.7077731347365
17.1897731347365 11.982773134736501 30.8857731347365
22.9457731347365 6.657226865263503 17.3502268652635
5.213773134736501 19.2312268652635 28.0593194042095
6.216226865263501 7.9487731347365 1.2997731347365011
4.1967731347365 26.285773134736502 15.3077731347365
27.809226865263504 25.163773134736502 32.0522268652635
4.7682268652635 9.4482268652635 13.6217731347365
15.6367731347365 27.1203194042095 20.917226865263494
31.437773134736503 3.833226865263498 2.9757731347364995
26.9453194042095 4.1892268652635 19.381226865263493
14.1607731347365 26.270865673682508 20.632226865263497
3.2032268652634954 22.8127731347365 29.715226865263496
20.6187731347365 8.7017731347365 17.678226865263504
17.717226865263505 23.122226865263507 20.980226865263496
27.7047731347365 17.4667731347365 20.7693194042095
15.3322268652635 21.7457731347365 18.150226865263498
4.330680595790497 18.403588056844512 26.6173194042095
11.4687731347365 3.2102268652635004 3.081680595790502
25.5577731347365 15.551226865263494 3.806680595790496
22.0133194042095 2.113226865263499 9.3613194042095
13.5367731347365 9.273226865263503 4.932226865263495
19.0563194042095 26.4847731347365 30.4902268652635
1.553226865263504 21.0217731347365 18.128226865263507
12.776680595790495 15.7947731347365 13.4082268652635
27.3567731347365 17.3103194042095 23.0427731347365
13.087226865263496 30.6047731347365 17.8337731347365
19.482226865263506 29.3382268652635 9.2132268652635
10.9022268652635 6.717226865263498 10.152319404209504
13.927680595790505 26.4627731347365 28.1587731347365
21.766226865263498 13.2237731347365 4.1282268652635
19.732226865263506 27.674319404209502 5.523226865263503
5.8202268652635 23.486226865263497 0.9182268652634988
1.764773134736501 20.5087731347365 14.571680595790497
32.0433194042095 5.7527731347365005 4.588680595790493
8.320680595790506 14.0737731347365 15.6862268652635
14.661226865263501 29.7347731347365 19.256226865263493
26.1827731347365 6.181226865263504 16.3532268652635
23.5877731347365 14.6037731347365 0.21577313473649973
19.2407731347365 26.1967731347365 6.685680595790501
16.163226865263503 24.6767731347365 30.101226865263506
5.953773134736501 15.080680595790497 4.8367731347365
12.125680595790499 14.691226865263495 18.4302268652635
32.1572268652635 29.229226865263506 24.7797731347365
3.5672268652634997 2.897226865263498 14.6257731347365
30.556773134736503 16.8477731347365 22.7497731347365
20.9037731347365 29.4187731347365 8.492773134736499
23.038226865263503 20.7497731347365 12.4697731347365
14.886680595790494 19.170226865263494 25.893865673682498
10.0427731347365 4.953773134736501 31.187773134736503
31.532226865263503 10.2607731347365 8.5827731347365
15.5097731347365 29.425773134736502 20.842226865263505
27.5223194042095 19.184680595790496 1.7372268652635015
15.767319404209498 8.341680595790493 4.097773134736499
13.013680595790504 20.3873194042095 27.6497731347365
0.08422686526349565 18.038226865263503 2.4887731347364994
26.2962268652635 16.9473194042095 27.566226865263495
24.550226865263504 1.7072268652635003 9.339680595790497
8.915680595790505 23.6447731347365 21.001226865263497
2.0956805957904976 31.0797731347365 0.600680595790493
14.1582268652635 15.412226865263499 4.216226865263501
29.045226865263494 18.682226865263495 0.7497731347365004
2.499226865263502 26.2287731347365 15.6757731347365
10.628680595790499 15.815226865263504 18.9387731347365
5.155226865263501 0.3147731347364999 6.7102268652635
13.3267731347365 8.292226865263501 25.0673194042095
24.1463194042095 9.340773134736502 16.5747731347365
8.708226865263498 16.782226865263503 18.217680595790497
12.508226865263502 15.6567731347365 26.559773134736503
12.598226865263499 27.4733194042095 31.525226865263498
4.000680595790499 15.2682268652635 24.9753194042095
28.910226865263503 18.13368059579051 0.7802268652635007
23.017226865263503 4.169226865263504 18.0213194042095
4.910226865263503 21.627226865263502 0.2912268652635035
16.635226865263498 28.9127731347365 31.2962268652635
26.428226865263504 13.309773134736501 0.3492268652634962
25.0867731347365 7.850680595790493 2.434226865263504
8.0822268652635 0.5642268652634996 10.392680595790495
13.357680595790498 14.1907731347365 14.6192268652635
15.8507731347365 10.888226865263498 0.5152268652635001
26.2897731347365 26.7287731347365 19.8187731347365
7.863226865263499 22.019226865263498 2.0883194042095035
28.5497731347365 8.327680595790497 1.205226865263505
8.904226865263503 10.607773134736501 27.180773134736498
19.5127731347365 13.0193194042095 11.430773134736501
8.8052268652635 5.0587731347365 2.7632268652634977
20.5427731347365 19.994226865263506 15.283319404209504
16.3636805957905 12.3962268652635 1.3197731347365007
2.7803194042095036 1.0092268652635 10.6802268652635
28.514226865263502 12.9086805957905 1.4416805957905012
15.5357731347365 14.036226865263501 4.2896805957905
15.615319404209497 12.5126805957905 0.9446805957905013
26.5713194042095 20.211226865263505 22.9573194042095
0.655773134736501 16.5637731347365 13.549773134736501
25.227773134736502 15.609319404209504 23.197226865263495
24.644226865263498 21.871226865263502 21.4332268652635
17.2817731347365 13.235773134736501 10.279226865263503
1.5072268652634975 1.1882268652634949 10.7532268652635
16.392226865263503 0.6406805957904993 15.421773134736501
8.069226865263495 20.7077731347365 0.10677313473649974
8.800226865263504 29.1122268652635 15.3297731347365
19.067773134736502 5.988226865263499 31.1113194042095
11.0822268652635 3.6353194042095005 31.5633194042095
15.025226865263498 27.0667731347365 30.297226865263504
28.967226865263505 18.756226865263493 26.5073194042095
27.465226865263496 19.9677731347365 19.875319404209502
29.316226865263495 13.690680595790496 0.6652268652634987
7.367680595790503 14.8763194042095 0.3747731347365004
13.234226865263501 18.271226865263493 18.658226865263494
21.8853194042095 9.906680595790505 17.1843194042095
22.9633194042095 23.6477731347365 29.104226865263506
13.345680595790498 30.661226865263494 30.8533194042095
26.2937731347365 16.563226865263495 2.7472268652634995
3.7006805957905016 13.904226865263503 7.4632268652635005
19.1363194042095 6.918773134736501 24.196226865263505
21.161226865263494 19.1287731347365 13.706773134736501
18.0343194042095 26.8052268652635 6.926319404209497
4.9817731347365 6.097226865263501 1.7772268652635006
4.800226865263504 1.3562268652635012 6.600226865263501
6.015319404209503 13.565226865263504 8.592226865263498
15.675226865263504 29.3052268652635 8.959226865263496
22.8622268652635 28.309226865263504 1.3797731347364994
4.8667731347364995 27.333226865263505 30.791773134736502
27.2527731347365 27.6063194042095 23.5157731347365
17.7827731347365 30.5683194042095 18.4277731347365
5.328226865263495 19.626680595790504 0.03322686526350083
22.366226865263506 13.696226865263505 3.7537731347365
3.5427731347364997 25.3207731347365 30.5793194042095
29.5363194042095 26.961226865263505 14.0337731347365
24.2222268652635 6.2377731347365 9.516226865263498
9.4907731347365 24.598226865263506 14.5152268652635
15.462319404209499 30.044773134736502 8.0276805957905
7.273319404209499 3.6326805957905037 2.499226865263502
8.444226865263495 24.2773194042095 23.032226865263503
11.305773134736501 15.4677731347365 13.970226865263498
16.6437731347365 18.1533194042095 4.714226865263498
3.958680595790497 24.587226865263496 29.544773134736502
2.772226865263498 9.925226865263504 18.5247731347365
11.8107731347365 29.5917731347365 17.1493194042095
13.157226865263503 16.3202268652635 1.610773134736501
3.0612268652634995 21.4537731347365 11.8172268652635
19.932226865263495 27.581319404209502 29.132226865263497
15.846226865263496 24.4267731347365 9.5687731347365
7.040226865263499 10.159226865263498 17.0537731347365
28.5177731347365 9.3172268652635 17.739226865263497
0.02822686526349827 23.196226865263505 28.6657731347365
20.373226865263497 13.354226865263499 14.2072268652635
10.735226865263499 3.4946805957904985 0.16968059579049566
8.292226865263501 11.7537731347365 27.775226865263498
9.4026805957905 27.550773134736502 12.133226865263502
20.958226865263505 26.878226865263507 1.506680595790499
5.520226865263503 10.3202268652635 7.880680595790494
4.1867731347365 9.4332268652635 16.6997731347365
16.724226865263496 27.869226865263506 6.4707731347365005
26.1316805957905 30.503319404209503 25.5683194042095
23.7427731347365 28.7133194042095 2.0697731347365007
25.193226865263505 27.608773134736502 2.019226865263498
13.645226865263503 19.630226865263502 11.028226865263498
21.151226865263503 12.834680595790502 4.333226865263498
24.6913194042095 18.435226865263495 22.1943194042095
7.6387731347365 29.000226865263507 14.087773134736501
6.2947731347365 22.8777731347365 30.4233194042095
8.702226865263505 4.113680595790498 8.654226865263503
23.8472268652635 0.3882268652634977 8.9617731347365
16.39568059579051 14.181226865263504 31.4967731347365
26.610226865263506 2.2852268652635033 4.262680595790499
2.4917731347364995 8.4497731347365 18.1797731347365
17.2517731347365 10.668226865263499 25.741319404209502
21.9116805957905 4.864226865263497 7.6707731347365
5.151680595790495 21.003226865263507 29.759226865263493
19.2677731347365 27.5467731347365 8.3262268652635
21.395226865263503 20.9572268652635 6.123773134736501
23.6433194042095 12.432226865263495 5.2642268652635025
18.9327731347365 13.0317731347365 11.749226865263502
0.23622686526349668 18.578226865263495 14.0336805957905
23.371226865263502 21.1437731347365 11.7177731347365
28.7312268652635 18.904226865263503 25.8807731347365
7.793226865263499 24.7177731347365 15.631865673682512
9.4332268652635 17.951680595790506 14.155773134736501
24.6832268652635 16.0233194042095 21.8747731347365
21.7287731347365 3.6167731347364995 6.924226865263499
8.240226865263502 29.809773134736503 28.0707731347365
3.753680595790499 20.3327731347365 15.0517731347365
5.767226865263503 15.8817731347365 28.4553194042095
28.3327731347365 28.914226865263494 26.759226865263493
16.5547731347365 23.821226865263505 19.806226865263504
5.9807731347365 6.241680595790498 1.6203194042095
26.2647731347365 23.4797731347365 31.7842268652635
20.1317731347365 27.7783194042095 10.406319404209501
8.255226865263502 27.878226865263507 15.210680595790492
13.4332268652635 16.0717731347365 13.8327731347365
21.0633194042095 26.3837731347365 0.6986805957905062
24.142226865263503 10.6293194042095 2.898226865263503
18.9627731347365 3.4292268652634945 31.6123194042095
19.9377731347365 7.8937731347365006 24.6263194042095
0.7822268652635032 27.7907731347365 25.753319404209503
10.761319404209498 3.4502268652634953 1.9172268652635012
27.9087731347365 12.483226865263497 31.001773134736503
21.9987731347365 1.6372268652635 7.7572268652634975
25.628226865263507 17.1873194042095 22.6507731347365
19.4907731347365 7.462680595790502 15.0187731347365
23.2407731347365 16.1047731347365 27.055773134736498
11.434226865263504 8.668773134736501 4.613226865263499
10.865319404209497 27.5707731347365 31.3453194042095
9.3442268652635 3.965680595790502 9.401680595790495
23.985680595790498 2.4266805957905007 9.476226865263499
2.8142268652634996 2.8212268652635046 24.712226865263496
5.056226865263504 20.9663194042095 31.9233194042095
25.4993194042095 4.0122268652635 11.489226865263497
28.3997731347365 19.166773134736502 23.169773134736502
19.124226865263502 29.352680595790503 7.530226865263501
7.525226865263498 0.877226865263502 27.6032268652635
5.949319404209501 10.624226865263502 8.609226865263501
7.2716805957904995 24.8607731347365 15.3902268652635
7.2652268652635 2.202226865263505 11.7412268652635
27.3997731347365 8.0957731347365 17.6007731347365
16.894226865263498 30.0443194042095 19.1997731347365
30.863226865263506 17.227226865263496 4.3727731347365
11.3442268652635 24.9727731347365 24.1397731347365
13.395773134736501 9.4417731347365 3.783773134736501
4.267773134736501 6.428773134736501 0.8152268652635044
13.7187731347365 13.8687731347365 2.465226865263496
24.467226865263505 13.6767731347365 2.8777731347365005
22.030226865263494 20.1227731347365 0.7162268652635007
29.123773134736503 17.9227731347365 21.5227731347365
16.8592268652635 11.5762268652635 10.497773134736502
14.5577731347365 28.3507731347365 21.3217731347365
4.248773134736501 2.266226865263498 9.8497731347365
22.2197731347365 14.288226865263503 4.442680595790506
24.3483194042095 15.77968059579051 6.027773134736501
30.0707731347365 18.505226865263502 22.358226865263497
6.100226865263501 0.13422686526349992 10.079680595790492
7.935226865263495 5.307680595790501 1.064680595790506
4.583226865263498 2.418773134736501 14.407226865263503
26.9512268652635 6.492773134736501 18.6922268652635
27.592226865263505 26.431773134736503 21.950319404209502
28.439773134736498 24.397226865263498 21.8142268652635
0.5177731347365011 3.0656805957904965 16.355773134736502
18.607226865263506 11.0127731347365 10.231226865263501
9.3442268652635 28.3817731347365 4.5426805957905
25.3622268652635 24.2197731347365 29.7807731347365
31.1107731347365 13.171226865263499 10.3097731347365
8.971226865263496 2.654226865263503 7.472319404209504
4.437226865263504 6.738773134736499 14.916226865263503
12.8657731347365 14.8142268652635 19.9812268652635
31.1747731347365 20.747226865263507 3.6487731347364996
16.419226865263504 27.288226865263503 28.9387731347365
0.08722686526349577 3.300226865263504 15.2847731347365
26.9047731347365 19.0317731347365 23.202226865263505
22.7807731347365 21.1487731347365 20.766226865263498
29.3052268652635 18.083680595790497 0.1816805957904961
2.7816805957905046 27.3703194042095 31.046319404209502
9.117226865263497 20.654226865263503 24.016226865263498
22.7782268652635 20.113226865263506 7.128680595790499
13.194680595790501 23.788773134736502 19.217680595790497
6.4092268652634985 23.7192268652635 30.175773134736502
17.751226865263497 28.7432268652635 21.7097731347365
21.6187731347365 16.5957731347365 25.758226865263502
23.3747731347365 23.1197731347365 7.5027731347365005
11.803226865263504 15.008226865263502 25.479226865263506
3.7272268652634963 22.9817731347365 31.724226865263496
9.698680595790506 31.741773134736498 9.0486805957905
31.925773134736502 2.276226865263503 5.035680595790495
8.022226865263498 22.001226865263497 24.355226865263496
0.5636805957905011 24.0577731347365 16.2007731347365
10.130226865263502 18.791773134736502 16.7207731347365
29.6487731347365 12.729226865263499 1.0737731347365003
9.973226865263499 28.439773134736498 6.777226865263501
6.603226865263501 4.292226865263501 1.4967731347365003
19.057226865263495 28.813226865263495 9.796226865263499
3.853226865263501 17.107226865263506 7.306226865263504
14.0576805957905 14.9657731347365 3.4607731347365007
4.5713194042095004 10.8937731347365 7.375680595790499
3.117680595790503 5.732773134736501 24.2233194042095
8.0127731347365 28.624226865263502 15.800226865263504
23.0277731347365 13.2197731347365 1.1957731347365002
25.935226865263495 11.0122268652635 30.4267731347365
30.4027731347365 29.9842268652635 8.528226865263498
24.241773134736498 10.602226865263496 3.6597731347365006
28.0097731347365 17.852773134736502 5.267226865263503
4.790226865263499 2.817680595790506 12.587680595790502
6.6392268652635025 28.494319404209502 23.6802268652635
30.0453194042095 27.9933194042095 25.5672268652635
4.910226865263503 2.2506805957904987 5.099134326317511
28.0967731347365 11.903680595790505 31.693226865263505
18.087226865263496 27.613773134736498 17.16668059579051
28.420226865263494 20.0277731347365 26.899226865263493
30.111773134736502 17.320773134736502 14.178226865263504
18.4217731347365 28.1397731347365 0.14968059579049964
19.7067731347365 11.029680595790495 23.8977731347365
26.8987731347365 22.1647731347365 24.523226865263503
20.096226865263496 26.621226865263502 30.991226865263506
25.1256805957905 2.8582268652634966 8.120680595790503
22.220226865263506 19.229226865263506 24.1587731347365
24.5972268652635 20.8112268652635 8.026226865263503
9.2817731347365 28.366773134736498 6.3202268652635
3.5027731347365005 14.7227731347365 5.7867731347364995
5.822226865263495 23.632226865263497 28.983226865263497
16.283226865263494 29.8357731347365 15.479680595790498
5.9292268652634945 11.496226865263502 17.2117731347365
24.8467731347365 6.0242268652635005 7.7417731347364995
4.440226865263504 26.4573194042095 28.3993194042095
24.869226865263506 10.3147731347365 4.4872268652635015
9.684226865263504 3.4997731347365004 9.816226865263495
15.6693194042095 18.180319404209502 28.0217731347365
1.6626805957905049 24.221226865263496 13.5507731347365
15.8207731347365 26.440226865263504 4.913226865263503
3.0042268652634974 3.9967731347365003 8.4127731347365
11.995226865263497 0.718226865263496 17.0492268652635
26.4027731347365 12.523773134736501 30.8643194042095
14.7297731347365 32.0247731347365 15.405773134736501
30.345226865263506 12.264680595790495 9.4027731347365
0.6266805957905035 2.251773134736501 13.748226865263497
20.8847731347365 23.800773134736502 28.6196805957905
8.2597731347365 6.100226865263501 0.8137731347365005
