29.8652268652635 27.751680595790504 27.9097731347365
18.789226865263494 10.377680595790494 7.188680595790501
28.586226865263505 19.605773134736502 20.729226865263506
27.16668059579051 16.810588056844495 13.307226865263495
22.8267731347365 16.6677731347365 12.725226865263501
3.0216805957904995 1.6182268652635017 28.0577731347365
20.5217731347365 26.211226865263505 1.5352268652635033
13.8277731347365 13.926226865263494 11.446226865263505
19.4687731347365 5.4807731347365 26.5552268652635
2.7802268652635007 13.1287731347365 29.247226865263507
16.411226865263494 0.5937731347364998 17.602773134736502
11.2102268652635 8.7577731347365 25.176226865263494
31.9833194042095 30.6826805957905 31.8322268652635
13.222680595790493 23.617226865263497 14.519226865263498
27.6997731347365 19.223226865263506 20.7767731347365
10.465773134736502 6.3932268652635 3.921773134736501
15.017226865263503 24.6017731347365 6.763226865263498
11.2132268652635 6.6187731347365 26.0027731347365
30.3777731347365 31.7932268652635 23.038773134736502
5.364680595790503 22.120226865263497 16.7337731347365
8.5117731347365 26.4187731347365 5.4162268652635035
19.269226865263498 27.5457731347365 25.587226865263496
22.0877731347365 30.5457731347365 9.541680595790496
14.5397731347365 25.0887731347365 13.2637731347365
26.980773134736502 4.6727731347365005 29.983226865263497
26.1857731347365 15.697226865263495 2.4832268652634966
5.703773134736501 24.4537731347365 14.5197731347365
14.2757731347365 21.2677731347365 24.9983194042095
16.6917731347365 30.0347731347365 13.9107731347365
7.1392268652635025 26.288226865263503 3.2562268652635
14.444319404209498 22.363865673682497 25.338680595790507
25.8537731347365 24.967226865263505 13.246319404209498
4.6357731347365 14.108680595790503 27.0817731347365
28.6497731347365 3.213773134736501 22.2407731347365
23.864226865263497 4.050226865263504 22.3203194042095
12.1567731347365 1.6087731347365004 28.0267731347365
18.4212268652635 9.607226865263499 1.4126805957905049
18.920226865263494 27.334226865263496 21.589226865263505
24.684773134736503 25.174319404209502 11.282680595790495
7.003680595790499 20.169226865263504 2.8122268652635043
25.462226865263496 23.416773134736502 28.794773134736502
26.503226865263507 20.4362268652635 24.387226865263493
26.468319404209502 3.0656805957904965 21.856865673682506
9.5137731347365 14.985773134736501 10.227680595790503
13.1447731347365 30.3793194042095 12.6277731347365
16.413773134736502 24.2187731347365 18.0303194042095
18.2087731347365 4.298226865263501 7.8467731347365
10.741773134736501 15.4272268652635 30.308319404209502
12.907226865263503 14.459319404209499 0.5342268652634985
1.9502268652634953 16.5552268652635 24.0642268652635
5.662226865263499 0.7862268652635009 5.9236805957905005
25.887226865263493 31.1593194042095 13.172226865263504
20.6952268652635 18.078226865263495 0.15177313473649967
0.3322268652635003 31.775226865263498 2.644226865263498
15.065226865263504 24.6883194042095 18.3243194042095
13.9287731347365 2.907226865263503 15.892773134736501
18.991226865263506 31.925226865263504 17.383226865263502
0.7982268652635014 15.1282268652635 13.0227731347365
28.150226865263498 24.2147731347365 27.8467731347365
4.2147731347365 9.6527731347365 24.1182268652635
24.980773134736502 28.4087731347365 13.8067731347365
15.3692268652635 21.1742268652635 24.7177731347365
17.2147731347365 14.3662268652635 4.4277731347364995
31.977773134736502 1.1447731347365 30.2693194042095
11.8213194042095 21.556226865263504 5.118226865263502
27.642319404209502 5.020226865263503 27.676226865263494
11.5797731347365 32.1533194042095 31.8153194042095
0.5622268652635043 1.2695880568444977 0.048226865263501395
25.962226865263496 3.815773134736501 21.369226865263506
18.025226865263498 22.5157731347365 8.3292268652635
13.8472268652635 12.2927731347365 20.060226865263495
26.303226865263504 23.1737731347365 13.1667731347365
2.4476805957905015 5.462319404209499 5.9707731347365005
15.475226865263501 22.8177731347365 30.0137731347365
16.2317731347365 22.230773134736502 30.0923194042095
3.9657731347364997 2.5282268652634983 14.570319404209503
28.1562268652635 13.3797731347365 28.9692268652635
9.3077731347365 12.450773134736501 31.7557731347365
4.225680595790493 10.008226865263502 22.9272268652635
11.6957731347365 8.690226865263504 13.2682268652635
22.8377731347365 27.3277731347365 17.1937731347365
5.9512268652635 26.396226865263493 23.708226865263505
19.621680595790508 32.1092268652635 1.4202268652635013
5.8347731347364995 3.4302268652634993 15.5697731347365
2.8582268652634966 0.48322686526349656 6.5587731347365
7.091226865263501 19.180680595790506 2.716773134736501
14.654226865263503 31.041773134736502 6.281226865263498
12.9137731347365 24.625773134736498 17.9692268652635
26.181226865263504 2.998226865263497 22.1797731347365
23.6417731347365 24.8307731347365 30.611226865263497
1.1522268652635006 23.602773134736502 6.168226865263499
4.8627731347365 1.513680595790504 13.934226865263504
13.546773134736501 28.852680595790503 6.325680595790502
10.370226865263497 13.101226865263499 10.229226865263499
15.8962268652635 15.623226865263497 4.810226865263495
12.8197731347365 0.9897731347365006 29.3267731347365
17.377226865263502 1.8797731347364994 15.763226865263498
17.077226865263505 20.0117731347365 15.6817731347365
20.6553194042095 13.8267731347365 7.309680595790496
24.867773134736503 1.0882268652635005 30.1783194042095
9.232680595790498 14.248773134736501 22.7257731347365
4.082680595790492 27.351865673682497 25.90813432631751
0.7592268652634999 11.488773134736501 32.1233194042095
0.6872268652635043 30.5093194042095 4.668226865263499
26.782319404209503 6.408134326317509 28.9812268652635
16.804226865263495 0.43822686526349486 18.626226865263497
27.765226865263493 13.243680595790494 22.964411943155497
9.7682268652635 25.2017731347365 16.3747731347365
9.674226865263499 14.2887731347365 10.149773134736499
7.1892268652635 26.902226865263493 4.504226865263497
6.1952268652635 25.4752268652635 5.4972268652634995
10.597319404209504 13.235773134736501 29.7717731347365
13.4877731347365 22.047773134736502 5.657226865263503
13.1637731347365 13.1927731347365 30.6717731347365
31.9133194042095 14.900226865263498 2.505226865263502
31.485226865263506 17.5937731347365 16.8617731347365
18.1403194042095 28.994226865263506 24.9637731347365
6.831773134736501 8.236226865263497 23.8003194042095
24.3187731347365 30.4662268652635 17.120680595790503
24.0047731347365 7.295226865263501 16.195773134736502
20.2663194042095 0.07522686526349531 0.5862268652634981
21.6152268652635 15.464226865263498 15.0057731347365
10.684226865263504 30.4187731347365 28.2577731347365
15.1167731347365 25.9857731347365 15.0997731347365
18.474773134736502 4.363773134736499 27.6107731347365
13.470680595790498 12.727226865263496 18.88068059579051
2.6022268652634963 8.310226865263495 25.3207731347365
25.581319404209502 5.681226865263504 28.0943194042095
17.7927731347365 0.023226865263502816 17.763226865263498
13.9477731347365 5.8497731347365 20.3817731347365
3.1757731347365006 15.617226865263497 24.2227731347365
12.340226865263496 15.709226865263496 32.0252268652635
16.244226865263506 24.6002268652635 4.954680595790492
12.705226865263505 31.562226865263504 15.4527731347365
0.671226865263499 30.742773134736503 24.8883194042095
14.228226865263501 0.20677313473650116 28.8967731347365
16.025680595790504 1.4227731347365005 12.8297731347365
11.6907731347365 17.4837731347365 17.4872268652635
6.604226865263499 25.5067731347365 6.700773134736501
12.542226865263501 21.0053194042095 27.561773134736498
2.2622268652635 25.586680595790497 8.421226865263499
27.069226865263495 14.990226865263502 24.9087731347365
24.6317731347365 15.4877731347365 1.3582268652634966
26.132226865263497 30.2282268652635 6.514773134736501
0.4782268652635011 0.0862268652634981 31.2867731347365
11.0657731347365 31.5397731347365 27.152226865263493
22.6387731347365 6.357773134736501 16.226226865263506
15.825226865263495 9.981226865263501 1.1752268652635038
14.7747731347365 5.1677731347365 7.3297731347365005
24.0717731347365 8.683773134736501 19.4707731347365
7.391226865263498 22.183680595790506 12.233226865263497
23.5627731347365 2.607319404209502 23.6433194042095
14.3992268652635 1.7622268652635 30.7647731347365
3.158773134736501 5.2012268652635 7.0367731347364995
26.0573194042095 28.2713194042095 12.5126805957905
6.1492268652635005 26.270226865263503 25.6707731347365
26.8233194042095 1.4672268652634983 16.5657731347365
25.2113194042095 16.7812268652635 0.6392268652635025
22.3022268652635 1.0582268652634994 30.0373194042095
16.770226865263503 21.9356805957905 23.3677731347365
19.1517731347365 25.300226865263504 31.584226865263496
6.436680595790506 28.1947731347365 0.7457731347365009
27.845226865263506 13.2927731347365 28.0732268652635
26.3763194042095 7.1127731347365 4.2947731347365
5.2657731347365 21.4267731347365 15.484226865263501
6.405773134736501 7.5032268652635 21.3877731347365
13.3907731347365 27.305319404209502 5.845680595790498
21.3777731347365 13.0457731347365 27.6682268652635
24.300773134736502 29.870773134736503 13.5897731347365
2.516226865263498 1.0517731347365 30.1823194042095
27.5197731347365 20.706226865263496 23.718680595790502
19.163226865263503 2.2867731347364995 14.0912268652635
19.7597731347365 28.9507731347365 23.550226865263504
13.307226865263495 8.7927731347365 13.3517731347365
1.1832268652634994 1.5822268652635003 7.6041343263175065
12.623226865263497 9.178226865263504 12.420226865263501
0.39113432631751266 24.166226865263503 7.0197731347365
29.4763194042095 8.6277731347365 13.227226865263496
24.1387731347365 7.131680595790499 6.107680595790498
1.7077731347365006 16.1952268652635 22.8172268652635
7.722226865263501 18.3827731347365 16.813226865263495
14.515319404209503 29.7723194042095 7.0336805957905
25.144226865263498 27.0167731347365 25.3532268652635
22.4242268652635 16.006773134736502 27.149226865263493
26.577680595790497 27.771226865263493 28.1063194042095
12.357680595790498 29.9607731347365 12.7057731347365
21.621680595790508 24.0667731347365 13.2317731347365
31.758226865263502 15.6997731347365 16.175680595790496
24.051226865263494 1.5772268652635049 24.595226865263506
23.1856805957905 23.175680595790496 30.789226865263494
25.425226865263504 3.489226865263497 9.169226865263504
21.5917731347365 0.4666805957904927 0.0862268652634981
26.985226865263506 13.1037731347365 25.480226865263496
0.9022268652635006 30.171680595790505 3.070680595790506
26.982226865263506 29.3123194042095 27.9557731347365
8.8022268652635 22.2137731347365 13.7497731347365
21.732226865263506 16.0372268652635 15.502680595790494
19.8857731347365 15.4577731347365 5.5637731347365005
14.937226865263504 13.5332268652635 8.300680595790496
14.3292268652635 22.366226865263506 5.253680595790499
27.5443194042095 10.5737731347365 12.220226865263498
15.749226865263502 30.018226865263493 6.565773134736501
2.755680595790494 14.934773134736501 30.575226865263495
5.135226865263498 20.768226865263493 5.3917731347365
25.880411943155494 4.570134326317515 5.4137731347365
2.5882268652635005 14.426226865263494 20.6443194042095
25.9782268652635 27.870773134736503 13.903680595790505
18.635226865263498 26.0467731347365 32.0277731347365
28.28568059579051 30.536226865263494 22.564773134736498
21.019226865263498 1.0476805957904958 9.348226865263499
25.9447731347365 5.620226865263497 6.495773134736501
6.232319404209502 19.57513432631751 0.968226865263496
11.9617731347365 5.5852268652635 3.8887731347364998
25.047773134736502 5.061680595790506 23.4567731347365
13.0357731347365 26.7476805957905 27.1002268652635
4.485226865263499 3.100680595790493 14.9727731347365
25.208226865263505 19.3117731347365 24.388226865263498
19.334226865263496 7.1187731347365 28.2717731347365
9.635226865263498 24.3347731347365 16.4717731347365
11.1677731347365 15.285226865263503 12.285226865263503
15.841319404209504 23.622226865263507 5.904226865263503
7.243226865263502 8.441226865263495 19.661226865263494
24.5336805957905 28.1737731347365 7.973680595790498
19.081226865263496 2.9097731347365006 13.831773134736501
19.217226865263505 2.8017731347365 6.5897731347365
4.581680595790502 9.766226865263498 20.550773134736502
11.837680595790502 6.186680595790506 18.792226865263494
26.602773134736502 1.0872268652634958 15.2836805957905
16.674319404209502 25.3673194042095 7.761319404209498
21.0047731347365 2.904680595790495 31.875319404209502
25.5867731347365 17.1092268652635 17.1316805957905
24.9127731347365 14.7797731347365 15.938319404209498
13.1192268652635 29.2593194042095 13.8887731347365
12.691319404209498 31.9803194042095 14.2437731347365
17.0247731347365 17.9757731347365 7.7667731347365
22.5747731347365 9.417226865263501 18.843319404209502
26.3172268652635 27.6297731347365 26.2753194042095
21.2427731347365 32.1607731347365 8.476226865263499
32.030226865263494 23.7133194042095 10.435226865263495
0.8222268652634952 15.3527731347365 22.342226865263505
7.7572268652634975 9.8172268652635 21.869226865263506
17.7012268652635 24.1037731347365 26.1517731347365
18.334226865263496 2.197226865263495 12.7047731347365
14.160226865263503 26.910773134736502 23.9237731347365
24.5667731347365 6.293226865263499 10.0336805957905
15.833680595790497 8.562226865263504 15.3367731347365
17.9452268652635 15.5612268652635 22.1927731347365
17.4752268652635 3.228680595790493 6.940226865263504
27.9787731347365 25.947226865263495 26.047773134736502
23.51168059579051 1.7192268652635008 31.8267731347365
6.3367731347365 30.8227731347365 17.0197731347365
9.654226865263503 12.416226865263503 1.0952268652634984
13.9387731347365 31.427319404209502 5.831773134736501
8.999226865263502 18.5852268652635 16.5697731347365
29.0677731347365 29.7637731347365 26.5937731347365
12.799226865263499 22.0927731347365 7.1922268652635
20.416226865263503 13.306226865263504 22.5697731347365
31.8013194042095 8.361226865263497 17.9867731347365
14.644680595790504 7.190773134736501 21.297226865263504
22.3767731347365 19.55958805684449 0.9706805957904976
19.8827731347365 0.04322686526349884 30.1707731347365
7.671226865263499 20.9047731347365 15.416226865263503
15.298226865263501 24.282319404209503 18.9507731347365
28.1047731347365 6.995773134736501 3.3852268652634976
16.422680595790496 22.9263194042095 10.583226865263498
27.1913194042095 19.9357731347365 22.7873194042095
29.3917731347365 19.2463194042095 7.969226865263501
24.8996805957905 16.2723194042095 0.6722268652635037
8.1857731347365 10.119773134736501 30.8377731347365
2.0072268652634975 17.8622268652635 24.814773134736498
12.6517731347365 20.375773134736498 8.193680595790497
6.632680595790504 3.0866805957904973 25.619226865263506
28.5317731347365 23.706226865263496 30.1742268652635
24.791226865263503 26.8307731347365 27.616319404209502
7.207773134736501 5.189680595790506 5.0822268652635
5.8613194042095 7.100226865263501 6.359226865263501
13.338680595790493 31.242680595790503 5.2157731347365
27.0577731347365 23.9843194042095 6.072226865263495
19.4692268652635 12.9927731347365 8.714226865263498
15.0587731347365 23.0687731347365 7.8382268652635005
18.6487731347365 14.2307731347365 21.7437731347365
13.8407731347365 23.395319404209502 9.402319404209504
16.6257731347365 30.8577731347365 11.7832268652635
4.425226865263504 22.147226865263498 29.3883194042095
7.359226865263501 20.2776805957905 2.8766805957905035
0.405773134736501 0.6986805957905062 30.5773194042095
27.2047731347365 26.9782268652635 24.9437731347365
18.5317731347365 12.734226865263501 5.988680595790498
25.6427731347365 28.5342268652635 15.211226865263498
18.5036805957905 5.368226865263502 26.4067731347365
17.8797731347365 25.0697731347365 27.238773134736498
6.0412268652635035 7.9267731347365 19.894226865263498
4.1083194042094995 5.1862268652634995 7.040773134736501
18.2137731347365 14.1227731347365 7.303226865263504
1.0407731347365008 9.1667731347365 9.113773134736501
30.7833194042095 30.352773134736502 21.6357731347365
29.7837731347365 5.767773134736501 16.8682268652635
30.583226865263505 31.5043194042095 2.7767731347364997
13.162226865263499 20.538226865263503 28.763226865263498
7.740680595790494 29.9812268652635 3.026226865263503
24.872226865263507 10.541134326317504 0.04322686526349884
16.1657731347365 26.427773134736498 17.2543194042095
20.005226865263502 13.7472268652635 19.020226865263503
21.4787731347365 18.726226865263506 4.218226865263496
30.3353194042095 13.525319404209501 2.853226865263501
29.6113194042095 0.2982268652635014 25.5163194042095
13.958226865263498 23.800226865263504 14.150226865263498
8.465226865263496 23.608773134736502 12.3177731347365
1.7882268652635034 15.3387731347365 19.580226865263505
20.580226865263505 14.4227731347365 27.5247731347365
29.4567731347365 24.1677731347365 30.5312268652635
12.9757731347365 5.814680595790506 8.081226865263496
26.801226865263494 31.4463194042095 16.852773134736502
25.9032268652635 14.601226865263499 27.5282268652635
15.1537731347365 30.711226865263505 11.4007731347365
21.5867731347365 20.2932268652635 1.610226865263499
4.5707731347365 20.2137731347365 4.44713432631751
5.693680595790497 24.038773134736502 12.148773134736501
18.0577731347365 14.852226865263496 22.2687731347365
5.897680595790504 20.3047731347365 29.370226865263497
11.058773134736501 1.6182268652635017 13.264226865263502
11.297226865263504 26.3022268652635 31.7687731347365
29.9332268652635 14.262319404209503 15.0242268652635
3.7847731347365006 2.3087731347364997 26.140226865263493
18.883226865263502 22.4803194042095 16.011226865263502
27.7043194042095 24.7297731347365 25.991773134736498
26.180773134736498 16.181226865263504 2.5542268652634945
26.5497731347365 23.7477731347365 11.3782268652635
3.300680595790496 2.952680595790497 14.758319404209498
28.935226865263495 23.042226865263494 18.863226865263506
10.1257731347365 15.1132268652635 11.632680595790504
27.2837731347365 25.3177731347365 27.2927731347365
23.4637731347365 1.7682268652635003 1.7976805957904958
27.7787731347365 7.793226865263499 11.4907731347365
16.5552268652635 22.253773134736498 27.7747731347365
12.0407731347365 20.8057731347365 7.0672268652635
19.9977731347365 4.597226865263501 27.260226865263498
8.635226865263498 28.917226865263494 3.8517731347365007
5.959226865263496 0.43122686526350407 25.061773134736498
3.2707731347364994 0.4207731347364998 8.672134326317504
7.0812268652634955 8.735680595790498 21.996226865263502
19.7872268652635 9.231226865263501 16.9242268652635
26.914226865263494 24.1742268652635 30.927773134736498
31.6407731347365 24.2806805957905 9.120226865263497
29.904865673682508 19.9087731347365 3.1806805957905055
29.5942268652635 12.099226865263496 3.891226865263498
14.940226865263504 2.9346805957904962 16.996226865263502
5.3172268652635 28.7807731347365 27.3293194042095
15.2267731347365 21.980226865263496 29.850865673682506
14.7686805957905 24.032226865263503 18.1832268652635
30.959319404209502 1.2002268652634953 31.803226865263504
7.235773134736501 20.6307731347365 3.7097731347364995
22.0217731347365 25.4122268652635 14.831226865263496
17.160226865263503 0.20522686526350498 14.474226865263496
14.8847731347365 0.40177313473649967 26.4597731347365
16.0587731347365 15.7917731347365 6.312226865263504
8.2807731347365 13.974226865263496 8.6367731347365
26.3317731347365 30.5893194042095 26.8683194042095
5.493226865263502 16.0787731347365 20.4367731347365
14.8377731347365 26.2373194042095 7.4802268652634964
2.7507731347365 32.056226865263504 29.740680595790508
24.298226865263494 16.408226865263494 17.3917731347365
25.613773134736498 27.1033194042095 31.991773134736498
23.8777731347365 23.937226865263504 27.880226865263502
18.383226865263502 3.9162268652635035 6.8722268652634995
23.739773134736502 28.2563194042095 5.3367731347365
28.7737731347365 30.4877731347365 27.8257731347365
12.773226865263503 24.2107731347365 25.871226865263502
4.290226865263499 2.3396805957904974 29.2327731347365
24.2753194042095 26.2717731347365 28.858226865263497
12.273680595790495 2.9657731347364997 14.242226865263497
13.547226865263504 1.0132268652634977 31.928773134736502
6.5396805957905 26.0117731347365 27.1107731347365
4.428226865263504 1.7732268652635028 29.422226865263504
12.3932268652635 25.1887731347365 7.540680595790505
23.861226865263497 29.4527731347365 14.5217731347365
31.9727731347365 8.5517731347365 13.2607731347365
3.285319404209499 2.9977731347364998 6.005773134736501
3.0762268652635 13.2567731347365 29.564319404209503
5.482226865263499 3.557680595790501 18.3973194042095
17.7167731347365 2.7616805957904944 16.158226865263494
22.4932268652635 15.437226865263504 1.8172268652634997
0.3022268652634992 7.794680595790496 18.227680595790503
28.6982268652635 9.3747731347365 11.882226865263497
24.897226865263498 22.9817731347365 13.587773134736501
20.2677731347365 29.053226865263504 20.0273194042095
17.5537731347365 24.1487731347365 7.2687731347365006
21.090226865263496 16.236226865263497 21.852773134736502
26.248773134736503 25.0187731347365 12.414226865263501
6.9307731347365 29.690773134736503 1.0836805957904971
24.413773134736502 24.738226865263506 29.2197731347365
7.607226865263499 0.587680595790502 24.4743194042095
26.6977731347365 20.9217731347365 19.8082268652635
0.17022686526350128 13.861226865263497 1.5617731347364998
17.0787731347365 23.7107731347365 28.186773134736498
31.9677731347365 29.6493194042095 4.206680595790502
14.3617731347365 9.1737731347365 22.029226865263503
1.3682268652635017 25.509226865263493 10.8842268652635
26.0957731347365 25.6092268652635 29.365680595790508
1.5202268652635027 19.388226865263498 29.901226865263503
24.384226865263493 6.440226865263504 17.3217731347365
1.8422268652634983 17.038226865263503 0.5912268652635007
7.679680595790501 7.803226865263504 22.227773134736502
17.453226865263495 3.4397731347365 17.646226865263493
12.499226865263502 27.062773134736503 26.5803194042095
14.3352268652635 22.523319404209502 10.440226865263504
28.4657731347365 15.5347731347365 27.809865673682495
0.05922686526350418 9.989680595790503 15.9557731347365
19.242226865263497 17.3197731347365 23.042226865263494
20.964680595790497 27.5137731347365 21.4627731347365
18.8817731347365 30.465680595790502 22.7113194042095
6.769680595790504 25.910773134736502 26.2047731347365
4.577226865263505 8.357773134736501 21.956226865263496
24.0577731347365 0.43768059579049634 24.4757731347365
22.1887731347365 1.1186805957904937 29.1063194042095
8.130226865263502 27.2607731347365 0.7242268652634962
24.7962268652635 31.4297731347365 16.7407731347365
4.300680595790496 8.937680595790496 23.8107731347365
11.453773134736501 1.1976805957905015 13.9397731347365
22.8543194042095 1.2206805957904976 8.5957731347365
21.1383194042095 7.0197731347365 14.8857731347365
14.5267731347365 31.303773134736502 5.278226865263498
29.608226865263497 29.666773134736502 22.387226865263493
24.9507731347365 27.001226865263497 4.753319404209503
6.505226865263502 22.5907731347365 7.774773134736501
6.682680595790501 4.5077731347364995 17.7457731347365
13.3197731347365 15.9047731347365 0.7752268652634982
12.058773134736501 30.925773134736502 11.434226865263504
32.0232268652635 11.963680595790493 1.5316805957905046
15.0707731347365 21.054226865263495 25.2342268652635
8.3367731347365 26.613319404209502 2.6157731347365
31.5353194042095 7.3172268652635 25.4773194042095
14.9197731347365 26.2527731347365 8.4107731347365
31.7853194042095 25.5297731347365 8.9022268652635
20.1687731347365 21.66368059579051 15.206773134736501
18.4817731347365 8.526226865263503 29.642226865263503
16.3187731347365 26.055319404209502 6.184226865263504
24.2347731347365 6.3482268652634986 9.264680595790495
0.6866805957905058 30.0333194042095 22.116226865263506
31.099773134736502 15.552680595790505 16.2507731347365
28.1122268652635 28.564773134736498 14.446226865263505
11.3016805957905 25.1063194042095 0.028680595790504526
15.5637731347365 8.3966805957905 14.496319404209498
31.5363194042095 5.251773134736501 16.327226865263505
10.075680595790502 11.670319404209504 30.7317731347365
31.302773134736498 15.886680595790509 14.418226865263499
17.144226865263498 21.5657731347365 25.105773134736502
26.7903194042095 30.663773134736502 6.5807731347365
23.029319404209502 7.176680595790501 4.9907731347365
19.568226865263505 28.4122268652635 23.0947731347365
16.022680595790504 30.6547731347365 13.3847731347365
29.507226865263497 29.3077731347365 25.137226865263493
7.9422268652635 26.2813194042095 4.311680595790506
27.7132268652635 14.693680595790497 27.66668059579051
13.4337731347365 12.613773134736501 6.107773134736501
22.875773134736498 28.7437731347365 16.438226865263495
23.0367731347365 17.370226865263497 0.7492268652635019
11.0377731347365 13.9647731347365 30.125226865263507
10.3292268652635 6.174773134736501 2.7036805957905017
16.950226865263495 4.3992268652635005 7.748773134736501
17.3202268652635 22.6733194042095 19.5396805957905
14.4877731347365 9.608226865263497 13.1497731347365
28.366773134736498 26.637226865263493 27.565226865263504
9.553226865263504 12.055680595790506 29.7187731347365
26.5107731347365 19.9737731347365 19.6107731347365
19.4422268652635 26.988226865263506 22.072226865263495
26.312773134736503 15.9577731347365 13.1982268652635
24.261226865263502 28.5737731347365 13.092226865263498
3.3842268652635 27.3217731347365 27.363773134736498
25.035773134736502 15.541226865263503 16.6286805957905
11.2532268652635 19.352226865263496 18.4497731347365
8.145134326317503 9.127319404209498 19.64868059579051
7.620226865263497 28.7957731347365 0.6812268652635041
26.392226865263503 20.790865673682504 22.089226865263505
9.9757731347365 28.456226865263496 1.4192268652635036
6.472226865263501 3.705226865263505 26.244773134736498
7.251773134736501 1.8142268652634996 18.8413194042095
27.7127731347365 28.010226865263498 15.115226865263502
24.041773134736502 17.7283194042095 2.3183194042095003
27.538773134736502 12.493226865263502 22.110226865263506
15.806226865263504 6.538226865263503 7.800226865263504
4.6662268652635035 4.002680595790494 14.3022268652635
31.096226865263496 22.8577731347365 20.4217731347365
20.2617731347365 8.450773134736501 15.246226865263502
23.6467731347365 18.541773134736502 4.354226865263499
25.1527731347365 29.497773134736498 6.825226865263495
6.930226865263499 8.0822268652635 24.2523194042095
24.370226865263497 0.5567731347365008 1.466773134736501
11.823134326317515 10.1312268652635 25.2902268652635
9.605680595790503 20.952226865263505 26.003226865263507
27.294773134736502 18.2342268652635 13.069226865263495
6.059680595790496 2.8967731347365007 18.940226865263504
21.2017731347365 17.522226865263498 2.019226865263498
0.9462268652635046 2.123773134736501 6.6342268652635
29.6587731347365 27.0917731347365 24.130226865263502
12.760226865263498 14.437680595790496 19.711226865263505
26.2557731347365 5.472226865263501 7.251773134736501
14.690680595790496 8.735773134736501 19.9812268652635
4.0152268652635 9.0417731347365 22.1677731347365
6.315226865263504 26.363773134736498 13.9367731347365
12.444226865263495 27.5247731347365 25.9583194042095
30.1387731347365 7.736226865263497 14.465226865263496
16.3502268652635 28.1653194042095 7.194226865263495
16.873226865263497 3.1067731347364997 13.319226865263495
2.206773134736501 18.107680595790498 29.9512268652635
18.547226865263504 23.0217731347365 8.8177731347365
12.232773134736501 30.9217731347365 30.7402268652635
12.7687731347365 31.614865673682502 31.5737731347365
22.649226865263493 30.9233194042095 9.145226865263503
27.794226865263504 26.4452268652635 25.3307731347365
24.2117731347365 5.754773134736499 8.450226865263495
15.6552268652635 21.494226865263506 27.169226865263504
0.049773134736501135 7.005226865263502 1.513680595790504
0.6376805957904992 27.7812268652635 1.564680595790506
4.678773134736501 0.45868059579049714 13.729226865263499
12.7532268652635 13.093226865263496 20.7962268652635
10.209773134736501 12.020773134736501 2.0042268652634974
21.1477731347365 18.3687731347365 3.269226865263498
0.15822686526350083 21.2067731347365 9.8517731347365
15.3757731347365 8.513226865263498 30.845226865263506
24.9877731347365 24.642319404209502 6.821134326317505
20.6243194042095 11.7807731347365 23.8636805957905
2.4873194042095044 32.0113194042095 7.965319404209499
13.7592268652635 23.803226865263504 8.2617731347365
1.4982268652634971 4.2622268652635 6.5447731347365
0.15422686526350304 25.940773134736503 9.4067731347365
23.037411943155504 19.4317731347365 0.3097731347365009
30.8883194042095 24.7317731347365 11.005680595790494
0.2492268652635019 13.212319404209499 13.592226865263498
31.6737731347365 7.3947731347365 14.1867731347365
2.8147731347365 10.099226865263496 25.181226865263504
22.5217731347365 25.1337731347365 13.209226865263496
17.2686805957905 7.2637731347365 21.6317731347365
26.3687731347365 17.8127731347365 1.860226865263499
13.860773134736501 6.586226865263498 2.6452268652635027
25.0207731347365 4.583680595790497 21.956226865263496
3.1362268652635024 1.3492268652634962 19.3097731347365
5.787773134736501 1.0672268652634997 26.2797731347365
17.8917731347365 5.469226865263501 6.4162268652635035
21.9697731347365 27.842680595790497 21.783226865263494
18.1247731347365 1.6992268652635047 7.5656805957904965
10.153226865263498 12.799226865263499 29.869226865263506
14.6892268652635 7.492680595790503 22.2287731347365
22.4302268652635 24.657226865263503 29.884226865263493
26.4677731347365 29.285773134736502 6.113226865263499
19.465680595790502 15.7686805957905 32.1772268652635
3.7446805957904985 1.6476805957905043 30.904226865263503
20.3137731347365 16.7866805957905 31.6693194042095
27.233773134736502 29.4657731347365 16.6167731347365
27.3717731347365 27.252226865263502 27.0217731347365
31.3107731347365 8.743226865263502 16.7812268652635
21.363226865263506 2.2697731347365 7.969226865263501
5.833680595790497 1.0702268652634999 27.6687731347365
26.7587731347365 30.135680595790504 14.581680595790502
0.5847731347364995 16.504226865263497 31.437226865263504
26.508226865263502 13.809773134736501 25.2697731347365
20.2297731347365 20.4987731347365 2.4102268652635033
31.2313194042095 8.0647731347365 26.732226865263506
28.3627731347365 28.473134326317506 28.360680595790498
10.026226865263503 11.9867731347365 11.117226865263497
26.5697731347365 25.26768059579051 26.870773134736503
17.8223194042095 14.0152268652635 7.371226865263502
25.045226865263494 5.555226865263499 9.867773134736499
4.267680595790495 2.8172268652634997 23.7767731347365
17.194226865263495 23.2517731347365 8.022134326317513
1.5476805957904958 30.699226865263505 3.2582268652635022
14.1087731347365 2.283773134736501 31.2103194042095
24.848226865263506 15.2837731347365 11.224226865263496
17.911226865263494 15.0097731347365 18.840226865263496
29.0217731347365 5.368226865263502 20.9597731347365
0.006226865263499803 28.7744119431555 24.149588056844493
23.250226865263507 7.3537731347365 4.5122268652635
19.7767731347365 10.9467731347365 6.797226865263504
2.4547731347365005 25.7932268652635 20.4617731347365
16.1527731347365 21.977773134736502 7.0882268652635005
6.150226865263498 27.6682268652635 5.9137731347365
12.3267731347365 20.5492268652635 27.4617731347365
20.8137731347365 0.4262268652634944 7.654226865263503
21.2757731347365 21.6673194042095 1.8402268652634959
8.742773134736499 22.396226865263493 14.809773134736501
31.3472268652635 29.672773134736502 25.494226865263506
25.379226865263497 16.9837731347365 3.8627731347365
26.685226865263495 6.037226865263499 5.8377731347365
4.5907731347365 3.6326805957905037 15.1407731347365
23.761226865263502 22.2707731347365 30.0397731347365
26.208226865263505 27.425773134736502 7.3142268652635
30.870773134736503 6.6937731347364995 14.5032268652635
22.0338656736825 17.936319404209502 1.7842268652634985
16.6127731347365 20.2047731347365 28.3327731347365
21.624226865263502 17.806226865263504 1.4116805957905
16.8637731347365 20.9207731347365 29.747773134736498
27.3847731347365 11.7562268652635 1.251773134736501
30.5227731347365 29.6007731347365 1.5686805957904966
7.418226865263499 25.125773134736498 1.884680595790499
31.190773134736503 22.215226865263496 10.7817731347365
17.5327731347365 21.649226865263493 25.949226865263505
22.2017731347365 7.022226865263498 3.149773134736501
3.833226865263498 15.2767731347365 23.023226865263503
1.2802268652635007 14.9632268652635 0.7936805957905051
26.7907731347365 25.6947731347365 31.140226865263493
4.275680595790504 1.5412268652635035 13.0977731347365
23.3877731347365 6.5366805957905 15.583680595790497
19.4602268652635 18.474226865263496 6.723680595790498
28.218226865263496 6.297226865263504 4.355680595790503
27.8833194042095 4.620226865263497 5.652226865263501
1.9087731347365011 17.769226865263498 30.4153194042095
17.5792268652635 25.069226865263495 5.9632268652635005
29.3232268652635 19.660226865263503 6.510226865263498
0.08422686526349565 29.6717731347365 3.2347731347365
31.5763194042095 0.725226865263501 24.943226865263505
15.029226865263503 5.543773134736501 8.1222268652635
9.6372268652635 12.462773134736501 17.1197731347365
4.694226865263495 14.4687731347365 19.7547731347365
21.6217731347365 20.5343194042095 0.9693194042095037
19.913773134736502 13.395226865263503 8.401226865263503
21.515226865263493 16.559226865263504 14.5897731347365
31.9967731347365 15.4942268652635 15.4283194042095
18.4637731347365 26.683319404209502 6.886773134736501
22.947226865263495 5.6862268652634995 6.0457731347365
5.165680595790505 0.7117731347365002 28.5157731347365
31.122773134736498 30.805773134736498 26.2893194042095
28.2943194042095 23.422226865263504 20.235319404209502
1.8562268652635012 8.660226865263503 25.8543194042095
6.0907731347365 8.9137731347365 22.8498656736825
24.235226865263506 31.2957731347365 0.12977313473649943
11.9687731347365 13.173226865263501 19.8777731347365
30.517226865263503 13.842226865263498 14.042226865263501
3.7512268652634972 31.372226865263507 18.166773134736502
2.7577731347364995 15.416226865263503 0.39877313473649956
16.1002268652635 21.8653194042095 26.1683194042095
1.4422268652634997 0.35222686526349634 14.691319404209498
12.400226865263498 0.8512268652634987 13.464226865263498
2.639773134736501 32.1242268652635 31.1003194042095
6.839680595790497 23.727226865263496 16.2327731347365
23.5372268652635 15.1147731347365 16.3472268652635
19.3052268652635 4.2287731347365 25.620226865263497
25.5137731347365 2.0602268652634947 21.059226865263504
17.611226865263497 30.928773134736502 13.2867731347365
31.315773134736503 1.1312268652634998 0.9947731347364996
30.7553194042095 8.0647731347365 17.208226865263505
6.738226865263499 1.9402268652635044 26.9572268652635
10.6127731347365 12.474226865263496 11.479680595790498
25.6347731347365 28.152226865263493 26.4687731347365
22.6657731347365 16.2077731347365 15.371680595790494
31.642319404209502 8.4987731347365 26.726226865263506
27.7677731347365 9.6317731347365 16.007226865263497
3.979226865263499 0.011773134736500879 8.416226865263503
0.03777313473650068 5.957773134736501 17.014226865263502
20.2767731347365 0.9432268652635045 8.289319404209504
6.618226865263502 3.1082268652634966 1.8667731347364995
14.827226865263505 15.2562268652635 31.9117731347365
25.1457731347365 32.0852268652635 15.982773134736501
26.7737731347365 25.599773134736502 25.5737731347365
27.471226865263496 12.383226865263502 26.3987731347365
2.6457731347364994 15.633226865263502 29.3963194042095
22.1197731347365 20.515226865263493 0.8002268652635038
6.711680595790497 21.114773134736502 15.3262268652635
0.5946805957904928 29.373773134736503 1.4477731347365008
18.152226865263493 15.411319404209504 4.7572268652634975
26.805773134736498 25.2222268652635 30.4272268652635
28.488319404209502 5.5297731347365 13.8352268652635
9.3367731347365 9.923226865263501 32.0067731347365
5.238680595790498 0.5396805957905002 24.663773134736502
10.993226865263502 14.6497731347365 10.6697731347365
12.549773134736501 30.840226865263496 4.901226865263503
21.024226865263493 8.2472268652635 17.1682268652635
19.080226865263505 13.8003194042095 7.1477731347365
12.814680595790506 1.5092268652635 15.3722268652635
25.7087731347365 5.2177731347365 22.595226865263506
7.5702268652635 31.8597731347365 24.337319404209502
4.983226865263497 4.219680595790493 15.1843194042095
31.0663194042095 14.107773134736501 2.773226865263503
26.8357731347365 25.078226865263495 15.1497731347365
28.1903194042095 19.6002268652635 21.189773134736498
10.5857731347365 13.701319404209503 31.1823194042095
15.3763194042095 10.293226865263499 7.6312268652635
19.3472268652635 28.616226865263506 21.7867731347365
20.0317731347365 5.358134326317511 24.7137731347365
18.3256805957905 29.6397731347365 21.8652268652635
9.523226865263503 12.973226865263499 24.872226865263507
7.1196805957904985 3.017773134736501 26.2053194042095
31.9873194042095 22.599226865263496 9.0537731347365
31.1987731347365 15.9717731347365 18.069226865263495
19.5937731347365 15.0857731347365 20.3073194042095
5.800226865263504 21.413226865263503 16.7207731347365
18.147226865263498 19.9443194042095 15.592226865263498
4.551680595790501 25.9326805957905 27.2987731347365
20.589226865263505 12.224226865263496 26.553773134736502
23.2253194042095 20.962226865263496 5.3292268652635
13.985226865263499 30.8562268652635 15.3617731347365
17.982226865263506 14.2757731347365 18.9657731347365
15.313226865263495 9.008226865263502 20.4872268652635
15.2547731347365 28.550773134736502 3.766226865263498
5.578226865263495 2.8152268652635044 14.8307731347365
20.226680595790498 14.854226865263499 26.3277731347365
20.3727731347365 2.4876805957904935 6.8137731347365005
26.334226865263496 4.867773134736501 22.5267731347365
29.7227731347365 31.2867731347365 23.604226865263506
0.7532268652634997 0.3416805957904927 4.108226865263497
16.6807731347365 16.1677731347365 9.0017731347365
10.934226865263504 31.9597731347365 28.8197731347365
17.039226865263494 21.2017731347365 28.6533194042095
13.5017731347365 31.1527731347365 6.794226865263504
1.015319404209503 22.9633194042095 8.757226865263497
10.1307731347365 11.117226865263497 30.0177731347365
2.806773134736501 1.6282268652634997 27.331319404209502
7.835319404209503 13.9367731347365 10.9167731347365
4.557680595790501 10.2297731347365 21.3427731347365
2.6097731347365 17.104226865263506 23.8517731347365
2.4262268652634944 30.477773134736502 1.4102268652635033
12.7927731347365 25.0773194042095 6.7682268652635
2.4167731347365002 1.6147731347365006 28.483226865263497
8.3717731347365 28.5063194042095 2.019226865263498
10.682226865263495 31.803773134736502 28.2927731347365
31.9113194042095 31.130865673682507 23.648411943155494
16.9997731347365 14.435226865263495 8.9236805957905
26.9092268652635 27.9617731347365 12.852226865263496
25.2483194042095 26.2483194042095 11.372773134736502
12.5047731347365 15.934773134736501 0.5042268652634974
19.4897731347365 12.645773134736501 8.6892268652635
7.360773134736501 9.1222268652635 22.183319404209502
17.845226865263506 9.0642268652635 30.8987731347365
6.609680595790493 7.4602268652635 19.379680595790504
27.3517731347365 3.902773134736501 30.6397731347365
22.6243194042095 7.5427731347365 14.532226865263503
13.491319404209502 23.4932268652635 16.740680595790508
24.709319404209502 4.7757731347365 5.0127731347365
9.6357731347365 19.2042268652635 16.2867731347365
23.7197731347365 21.9697731347365 13.3277731347365
17.9447731347365 31.923226865263494 14.7257731347365
27.408226865263494 3.5042268652634974 30.324226865263505
1.3656805957904936 20.0127731347365 30.8397731347365
18.834226865263496 24.3307731347365 17.8827731347365
23.753226865263507 16.375226865263507 0.3992268652635005
31.922226865263504 30.5717731347365 25.861226865263497
16.0822268652635 1.2102268652635004 17.1987731347365
27.794773134736502 29.0747731347365 28.9577731347365
15.298226865263501 9.7657731347365 20.8667731347365
27.190226865263504 28.375226865263507 25.620226865263497
7.999226865263502 24.283226865263494 13.4137731347365
14.613319404209502 19.9067731347365 26.774226865263493
19.6473194042095 7.7127731347365 15.7497731347365
15.918773134736501 24.4313194042095 8.9467731347365
21.4206805957905 15.8797731347365 21.2877731347365
21.8996805957905 26.3043194042095 21.826680595790506
25.4757731347365 22.310226865263495 12.316226865263495
32.114773134736495 31.4217731347365 32.048226865263494
27.5887731347365 31.190773134736503 16.327226865263505
21.6233194042095 13.0637731347365 7.6432268652635
3.563226865263495 30.6313194042095 15.331680595790502
13.7637731347365 31.3307731347365 30.0397731347365
10.767773134736501 24.6397731347365 14.889226865263502
1.293773134736501 3.2642268652635025 7.9167731347365
2.729680595790498 0.6126805957904935 14.612680595790493
24.9242268652635 17.236226865263497 1.1672268652635012
13.454319404209503 12.053680595790496 8.0156805957905
1.3947731347365 31.4577731347365 1.9342268652635042
29.5867731347365 26.699680595790497 27.5857731347365
25.6767731347365 26.2897731347365 31.5276805957905
29.0732268652635 27.0957731347365 27.327680595790497
22.6802268652635 17.549680595790505 1.6057731347365003
13.7023194042095 26.5743194042095 8.1402268652635
4.473773134736501 4.773680595790495 4.8757731347365
27.5487731347365 25.7853194042095 24.791773134736502
14.9907731347365 8.147226865263498 14.738680595790498
32.0297731347365 31.1173194042095 31.416773134736502
5.9047731347365 31.4452268652635 13.7287731347365
4.174680595790505 12.454680595790492 26.7797731347365
2.0303194042095036 30.9053194042095 2.8242268652635047
2.3596805957904934 1.8881343263175125 16.157226865263503
20.486773134736502 6.869226865263499 3.7612268652635024
23.2037731347365 21.9362268652635 2.788134326317504
14.8292268652635 27.3337731347365 6.6892268652635
30.6457731347365 15.7337731347365 17.4527731347365
3.607226865263499 9.941319404209498 23.226226865263506
6.584226865263496 31.2372268652635 19.333226865263505
0.9367731347364998 16.035226865263503 11.9117731347365
6.430226865263499 1.4972268652634995 23.602226865263496
17.7867731347365 21.785773134736502 28.7693194042095
2.6152268652635016 17.2767731347365 29.920226865263494
13.3902268652635 2.1827731347365003 28.670226865263494
18.608773134736502 2.749680595790494 14.7667731347365
5.636226865263502 23.527226865263493 15.735773134736501
13.019226865263498 14.2797731347365 17.675226865263504
2.357773134736501 16.2117731347365 23.282226865263503
30.3957731347365 26.1967731347365 27.4757731347365
7.3552268652634964 27.3383194042095 28.208226865263505
4.3457731347365005 3.9597731347364995 8.315226865263504
19.778680595790505 18.0576805957905 6.7797731347365
8.520226865263503 12.108226865263497 31.404226865263503
27.1403194042095 14.1582268652635 24.183773134736498
31.7877731347365 6.656680595790505 1.2116805957904973
0.16177313473649946 24.3547731347365 8.6492268652635
3.526226865263503 25.8193194042095 18.5653194042095
16.0687731347365 22.9092268652635 16.422226865263504
6.028319404209501 21.967226865263505 13.826319404209503
22.7377731347365 31.0487731347365 31.9933194042095
8.1667731347365 11.362226865263501 0.772226865263498
31.858226865263497 8.914226865263501 15.615226865263502
5.328773134736501 1.5306805957904999 27.9387731347365
23.0822268652635 1.1162268652634992 30.315226865263504
28.4857731347365 26.8927731347365 0.7836805957905
15.892773134736501 1.8273194042095007 14.2977731347365
24.1767731347365 25.3457731347365 30.989773134736502
24.834319404209502 25.5713194042095 28.0177731347365
12.596226865263496 20.397226865263498 9.078226865263495
10.587226865263496 15.776226865263503 10.450226865263495
8.9207731347365 12.2307731347365 30.617773134736503
27.5967731347365 22.9997731347365 30.610319404209502
8.622680595790499 29.572226865263495 4.029226865263503
21.3532268652635 18.8817731347365 31.4187731347365
25.4842268652635 22.7293194042095 29.059226865263504
3.900226865263498 13.481226865263501 27.0197731347365
19.7303194042095 2.0342268652634985 6.961680595790497
18.399226865263493 7.142226865263503 27.8907731347365
21.3727731347365 12.489226865263497 25.5317731347365
23.6993194042095 17.191226865263495 1.7442268652634993
12.133226865263502 9.676226865263494 27.630226865263502
31.4693194042095 14.5837731347365 15.764226865263502
31.649226865263493 16.760226865263498 13.635226865263498
12.926226865263494 20.4307731347365 5.590226865263496
15.135680595790504 23.5757731347365 28.552773134736498
28.6623194042095 31.977773134736502 25.2677731347365
24.7282268652635 30.805773134736498 13.9236805957905
18.8173194042095 4.6127731347365 8.087226865263496
22.7837731347365 27.4537731347365 13.648226865263503
17.919226865263504 15.6097731347365 22.488226865263506
19.045226865263494 14.656319404209501 21.818226865263505
19.212319404209502 32.0807731347365 31.708226865263505
25.27668059579051 16.7877731347365 2.4592268652634957
2.7802268652635007 16.091319404209504 20.364773134736502
13.6957731347365 30.4053194042095 6.495226865263497
14.559226865263504 7.922226865263504 21.3673194042095
8.200773134736501 26.062226865263504 14.880680595790494
0.3087731347364997 19.7162268652635 31.8927731347365
13.7746805957905 1.4006805957905044 28.5432268652635
13.227226865263496 12.6877731347365 20.4177731347365
13.794226865263504 23.1007731347365 17.3067731347365
30.5582268652635 23.407226865263503 20.5822268652635
14.540319404209502 11.223226865263499 6.609226865263501
21.4437731347365 19.343226865263496 1.2632268652634977
15.9272268652635 23.5107731347365 23.6767731347365
27.6032268652635 19.145134326317503 14.0456805957905
24.900226865263498 30.0837731347365 7.0182268652635
16.6787731347365 16.52968059579051 6.992773134736501
23.4953194042095 24.6892268652635 14.852226865263496
8.1267731347365 27.5467731347365 6.5267731347365
24.4773194042095 3.2117731347365 10.1952268652635
6.739773134736501 4.3977731347365 6.2502268652635
25.735226865263506 24.517319404209502 0.9506805957905016
5.2827731347365 27.724773134736502 27.431773134736503
14.866680595790498 24.934773134736503 22.9613194042095
3.2277731347365 31.857319404209502 30.7677731347365
2.3822268652634975 24.2513194042095 19.7053194042095
2.5587731347364997 1.346226865263496 6.7087731347365
1.5216805957904995 22.5312268652635 9.543680595790505
2.216773134736501 14.5067731347365 19.1527731347365
26.3562268652635 0.7322268652634989 16.39268059579051
24.8217731347365 8.599226865263496 19.791226865263503
19.3773194042095 1.2832268652635008 7.254226865263497
4.856319404209504 3.8947731347365 6.1982268652635
1.1452268652635027 23.8477731347365 7.499226865263502
26.4907731347365 7.9406805957904965 6.703226865263495
6.545226865263501 32.0917731347365 16.671319404209502
23.792226865263494 24.3443194042095 15.5327731347365
27.7872268652635 8.2442268652635 14.1053194042095
16.147226865263498 21.3597731347365 17.1712268652635
12.9007731347365 29.690773134736503 4.418773134736501
11.1637731347365 16.8807731347365 28.9613194042095
3.8237731347365003 0.9302268652634993 29.5877731347365
24.0522268652635 0.1872268652635043 21.8163194042095
21.2363194042095 1.5377731347365007 31.8427731347365
4.709226865263496 1.861680595790503 17.0353194042095
28.8683194042095 25.5827731347365 26.8477731347365
24.0972268652635 0.33677313473650017 31.3897731347365
16.736226865263497 23.9047731347365 9.117680595790503
5.7477731347365 21.807226865263495 14.43213432631751
17.533226865263494 22.987865673682506 16.8667731347365
1.444226865263495 14.229226865263499 30.872319404209502
29.1277731347365 27.2317731347365 26.8412268652635
32.0462268652635 26.4647731347365 8.556226865263504
27.289226865263494 12.551319404209497 8.22986567368251
22.989226865263497 1.6907731347365011 1.9392268652634996
20.8437731347365 21.786226865263494 2.5852268652635004
17.5147731347365 24.739226865263497 28.3567731347365
24.9422268652635 31.884226865263493 0.44222686526349975
29.586226865263505 27.4203194042095 26.9187731347365
27.9607731347365 22.4663194042095 19.741319404209502
16.893226865263493 0.9632268652635005 11.5307731347365
29.1737731347365 9.485773134736501 15.6867731347365
11.4107731347365 12.937226865263504 19.6152268652635
11.159226865263498 18.973226865263506 18.0372268652635
18.7222268652635 13.277319404209504 25.019680595790504
