26.1772268652635 25.7217731347365 16.3262268652635
28.7743194042095 28.429226865263495 21.1182268652635
3.6487731347364996 8.0617731347365 23.971680595790502
31.2098656736825 29.6597731347365 9.726226865263499
4.315773134736501 26.626226865263497 14.4447731347365
4.435226865263495 8.084226865263496 31.676226865263494
16.3357731347365 9.418773134736501 10.904319404209499
0.10122686526349867 7.023226865263503 10.506680595790499
23.3133194042095 20.5402268652635 5.217134326317506
0.3472268652635009 15.052773134736501 6.642680595790495
5.883134326317503 9.162680595790505 22.900680595790504
9.210680595790492 11.7663194042095 32.125319404209506
23.3717731347365 20.378226865263507 0.8582268652634966
15.617226865263497 14.9572268652635 11.239226865263497
3.7447731347364996 19.0653194042095 12.044226865263504
29.998773134736503 0.08122686526349554 5.3112268652634995
26.0767731347365 28.1712268652635 19.7147731347365
24.5427731347365 30.7536805957905 22.1917731347365
22.032319404209503 1.4656805957905021 9.5383194042095
17.1007731347365 16.053226865263504 9.5687731347365
16.163773134736502 27.047773134736502 18.768226865263493
18.5522268652635 25.9602268652635 14.1937731347365
23.985226865263506 3.2737731347364996 22.9297731347365
26.200319404209502 21.379226865263497 28.1427731347365
23.8977731347365 26.2007731347365 6.1282268652635
20.6507731347365 10.192319404209503 9.8902268652635
12.8352268652635 22.9597731347365 25.3827731347365
5.477226865263496 17.000226865263507 20.625773134736498
21.5127731347365 13.6987731347365 4.8657731347365
13.563226865263495 12.746319404209498 19.5462268652635
23.035226865263503 2.0116805957904944 31.2047731347365
16.759134326317508 28.095680595790498 1.7532268652634997
26.6597731347365 5.611226865263497 24.2923194042095
3.6126805957904935 10.5212268652635 22.6437731347365
29.194226865263495 10.5156805957905 18.3237731347365
17.9677731347365 1.357680595790498 20.352226865263496
28.9003194042095 5.6507731347365 9.477226865263496
10.4027731347365 27.428773134736502 23.5582268652635
10.253680595790499 24.992773134736503 30.8207731347365
15.226226865263499 11.727226865263496 22.765226865263493
8.0377731347365 21.855773134736502 26.7547731347365
8.060226865263495 11.604680595790498 15.2347731347365
31.5993194042095 14.0407731347365 14.094680595790493
7.738226865263499 14.2832268652635 26.0453194042095
15.4257731347365 4.697226865263495 30.250319404209502
21.014226865263502 17.9257731347365 32.0627731347365
16.618134326317502 21.0347731347365 4.851865673682511
28.8022268652635 19.9902268652635 0.0132268652634977
9.0377731347365 15.216773134736501 12.3412268652635
8.3262268652635 12.546680595790505 15.990134326317502
7.733226865263497 12.706773134736501 31.370773134736503
2.982773134736501 10.588773134736499 21.335680595790507
9.6252268652635 2.3187731347364995 16.219319404209504
27.5857731347365 27.6363194042095 21.770226865263503
16.809680595790496 31.184773134736503 8.9283194042095
8.5597731347365 3.894226865263498 15.543773134736501
29.4077731347365 22.4277731347365 8.459773134736501
31.7107731347365 23.375319404209502 4.215680595790502
30.8277731347365 19.897226865263498 17.783226865263494
1.7756805957905044 12.2027731347365 0.37222686526349946
23.8652268652635 15.5687731347365 30.699226865263505
21.5852268652635 18.6747731347365 21.6717731347365
26.2997731347365 29.2087731347365 23.873226865263497
9.802773134736501 7.985680595790498 15.970226865263506
21.640226865263493 14.3292268652635 3.6087731347365004
24.235226865263506 6.860680595790498 2.9102268652635033
1.0476805957904958 16.0127731347365 29.613319404209502
10.4147731347365 23.800773134736502 20.6387731347365
27.1093194042095 29.606865673682506 20.648226865263503
12.2742268652635 16.780226865263494 31.449226865263505
18.1997731347365 23.2117731347365 30.4437731347365
24.8687731347365 14.677680595790505 22.922773134736502
24.5827731347365 10.7237731347365 28.7877731347365
30.7787731347365 14.2297731347365 31.2173194042095
8.962226865263496 9.635226865263498 25.40168059579051
19.4077731347365 27.2707731347365 12.419226865263504
11.577226865263505 1.1392268652635025 17.361226865263497
17.160773134736502 2.9147731347364996 21.314773134736498
2.229226865263499 14.7537731347365 29.605773134736502
14.2656805957905 23.1717731347365 18.369319404209502
31.7363194042095 10.953773134736501 31.027226865263493
24.896226865263493 23.7057731347365 1.1372268652635
7.9707731347365005 13.863680595790498 13.849226865263496
20.6127731347365 1.793773134736501 30.774226865263493
5.441226865263495 25.3747731347365 13.3727731347365
12.709773134736501 8.508226865263502 19.3947731347365
23.617226865263497 19.836226865263505 0.4076805957904952
28.4932268652635 27.9627731347365 20.4127731347365
3.748773134736501 32.0657731347365 4.478226865263501
9.141226865263498 27.6367731347365 2.253680595790499
21.6182268652635 20.879226865263497 22.227773134736502
12.809773134736501 30.5937731347365 28.122319404209502
14.714680595790497 11.555680595790506 13.5697731347365
5.530226865263501 17.699226865263505 20.2517731347365
12.922226865263504 23.236226865263497 27.991773134736498
23.8352268652635 18.6797731347365 30.1437731347365
10.599226865263496 27.181773134736503 13.1047731347365
11.6417731347365 26.223226865263506 13.5567731347365
19.4062268652635 28.964680595790497 1.4302268652634993
31.1963194042095 7.516226865263498 17.6062268652635
28.986773134736502 11.2987731347365 1.455226865263505
15.139773134736501 1.6227731347364998 2.7682268652635003
4.8027731347364995 6.595680595790498 28.8903194042095
21.5492268652635 29.441226865263495 23.330226865263505
9.3932268652635 13.732226865263499 27.114773134736502
16.742226865263497 24.0777731347365 29.266226865263498
5.8717731347365 8.693680595790497 25.4067731347365
6.838773134736501 4.3087731347365 11.428226865263504
23.918680595790505 5.3613194042095 22.2563194042095
16.3957731347365 23.8387731347365 29.126773134736503
0.18422686526350418 28.099226865263496 24.108773134736502
15.6737731347365 26.988773134736498 20.0567731347365
12.148319404209499 29.6407731347365 13.224226865263496
28.2203194042095 9.9452268652635 17.4147731347365
12.616319404209502 29.479226865263506 8.9523194042095
24.8973194042095 19.666773134736502 12.732773134736501
4.462226865263496 7.373226865263497 30.681773134736503
30.4757731347365 3.2847731347365006 0.047226865263503726
8.2472268652635 12.025319404209501 0.20677313473650116
22.4477731347365 4.0137731347365 24.3797731347365
4.574226865263505 2.2116805957904973 3.938226865263495
12.6367731347365 5.412680595790505 0.8997731347365008
5.0682268652635045 8.2987731347365 7.8426805957904975
12.465319404209499 29.3417731347365 2.364226865263497
29.881226865263493 21.7137731347365 7.852226865263496
23.4977731347365 14.1267731347365 12.565680595790496
20.4242268652635 28.8683194042095 22.3087731347365
4.116226865263499 6.479773134736501 29.672773134736502
12.6587731347365 2.066226865263495 16.898226865263503
22.413226865263503 28.064773134736498 11.1582268652635
4.662773134736501 31.943226865263505 20.3107731347365
17.2417731347365 0.37768059579049407 17.4527731347365
22.3307731347365 16.434680595790496 30.3717731347365
0.596319404209499 15.357226865263499 8.120773134736499
3.5212268652635004 2.0072268652634975 3.2972268652635037
6.222226865263501 0.5837731347365 28.982226865263506
13.0727731347365 5.114680595790503 20.575226865263495
10.637319404209503 29.023319404209502 0.9802268652634964
16.7992268652635 0.5982268652634986 21.977773134736502
20.0757731347365 23.0372268652635 25.437226865263504
6.886226865263502 29.309226865263504 27.971226865263496
18.744226865263506 2.015134326317508 18.4677731347365
30.0612268652635 22.1982268652635 27.303773134736502
15.8917731347365 22.514226865263502 12.7057731347365
24.237680595790508 9.973319404209501 28.686680595790506
26.869773134736498 27.427773134736498 18.275680595790504
25.499226865263502 28.4057731347365 21.499226865263502
27.6122268652635 2.2926805957905003 12.9332268652635
23.5073194042095 3.7432268652635017 25.041226865263503
16.4787731347365 12.8292268652635 9.923226865263501
0.6032268652635011 10.076680595790492 16.7397731347365
23.6023194042095 14.2012268652635 12.9692268652635
5.392226865263503 32.1563194042095 3.7417731347364995
7.203680595790502 1.3137731347365005 26.8717731347365
31.872773134736498 29.258226865263502 25.563226865263495
5.449226865263505 21.753319404209503 2.1422268652635026
18.968226865263496 6.427226865263499 0.1312268652634998
8.894226865263498 30.3263194042095 24.7623194042095
12.742226865263497 31.578226865263495 28.0167731347365
6.493680595790494 23.2517731347365 24.2723194042095
18.604226865263506 26.696226865263505 11.741773134736501
31.4542268652635 24.2677731347365 3.2192268652635008
9.6827731347365 27.143226865263493 12.418226865263499
26.016226865263498 13.385226865263498 23.105226865263496
21.462680595790502 9.971226865263496 10.1307731347365
11.578226865263495 28.227773134736502 1.7532268652634997
6.163226865263503 19.4602268652635 0.28168059579050464
0.24422686526349935 8.379226865263497 11.090680595790502
1.0012268652634972 10.398226865263503 31.8683194042095
16.0563194042095 5.417226865263501 31.0552268652635
6.504773134736499 0.19777313473650082 29.157226865263503
23.625226865263507 16.002226865263502 24.1532268652635
1.766680595790504 15.137319404209503 5.515680595790499
24.544773134736502 25.5343194042095 15.984226865263501
10.919226865263504 15.7907731347365 14.455226865263505
21.8532268652635 27.4067731347365 12.9717731347365
28.211226865263505 20.800226865263504 18.1457731347365
5.5072268652634975 6.152226865263501 12.650226865263498
32.0383194042095 5.394226865263498 7.790773134736501
27.0887731347365 0.647226865263498 6.2537731347365
0.3006805957904959 2.956773134736501 0.09822686526349855
11.2487731347365 28.834226865263496 25.9868656736825
15.078226865263495 23.4187731347365 18.2717731347365
10.979226865263499 28.8217731347365 24.0257731347365
24.0967731347365 29.6873194042095 18.3467731347365
7.936680595790506 4.226773134736501 11.3877731347365
26.968226865263496 29.4697731347365 17.102773134736502
6.808319404209502 2.3296805957904922 29.6652268652635
31.983773134736502 11.0047731347365 0.9927731347365008
7.2927731347365 4.774773134736501 9.660226865263503
7.376226865263497 10.7617731347365 24.8682268652635
18.508865673682507 27.8643194042095 27.5552268652635
31.5687731347365 3.6487731347364996 31.170226865263494
11.0547731347365 17.6203194042095 18.3067731347365
29.3407731347365 27.5437731347365 20.967226865263505
19.2907731347365 12.55986567368251 23.3087731347365
15.174226865263499 26.8997731347365 20.6327731347365
4.631680595790499 0.2882268652635034 20.776226865263503
12.4667731347365 6.177226865263499 22.629226865263497
28.001226865263497 10.9362268652635 23.4477731347365
15.4157731347365 7.556226865263504 13.0667731347365
3.2704119431554943 3.631865673682512 18.380134326317503
21.4667731347365 21.514226865263502 19.2377731347365
7.941226865263495 9.798226865263501 24.6303194042095
21.635226865263498 3.4527731347365 8.385226865263498
5.2866805957905 7.5267731347365 13.257226865263497
17.767319404209502 2.094680595790493 21.6062268652635
9.545319404209504 15.594319404209504 19.52668059579051
10.7697731347365 26.4737731347365 2.391680595790504
22.798226865263494 2.4787731347364996 8.105226865263496
14.8727731347365 8.3632268652635 5.743226865263502
7.303226865263504 31.3217731347365 28.0633194042095
19.693226865263505 13.830680595790497 4.9587731347365
6.471226865263496 30.2407731347365 27.5672268652635
28.033226865263494 10.2277731347365 18.0397731347365
5.8312268652634955 5.3437731347365 11.2927731347365
26.010680595790504 16.5522268652635 22.6813194042095
11.028226865263498 31.6367731347365 28.4123194042095
21.8337731347365 17.477773134736502 0.2742268652635005
30.706319404209502 14.0357731347365 8.170319404209504
18.1987731347365 28.839226865263505 0.6372268652635
28.4783194042095 15.9452268652635 16.941226865263495
1.4722268652635009 13.9512268652635 7.549773134736501
13.185226865263495 31.7188656736825 25.348226865263506
12.002226865263502 31.854680595790498 7.781226865263498
1.7622268652635 13.6993194042095 30.5703194042095
25.5087731347365 30.268226865263493 18.9027731347365
9.355226865263496 2.773680595790495 15.953773134736501
12.575773134736501 5.971226865263496 21.6237731347365
26.1387731347365 31.4873194042095 29.39268059579051
26.5787731347365 28.001773134736503 20.401226865263503
4.194680595790501 7.122680595790499 22.3417731347365
26.735226865263506 28.673226865263494 20.7457731347365
20.834226865263496 7.501773134736501 4.241226865263499
17.111226865263497 12.118226865263502 24.4587731347365
23.7377731347365 28.757226865263497 22.4182268652635
9.1342268652635 14.7957731347365 14.233226865263497
29.2543194042095 20.4787731347365 7.468226865263496
26.5437731347365 28.5467731347365 22.8077731347365
12.9977731347365 19.7117731347365 5.547680595790496
6.278226865263498 7.560226865263495 30.985319404209502
4.611680595790503 18.9647731347365 2.0146805957904945
25.2836805957905 26.6557731347365 6.0416805957904955
19.254226865263497 27.169773134736502 12.871226865263502
13.4897731347365 6.235226865263499 22.187226865263504
12.6377731347365 19.113319404209502 24.4907731347365
30.2657731347365 4.315226865263504 0.14022686526350014
15.3647731347365 13.9542268652635 9.558680595790506
26.4177731347365 28.544773134736502 15.6207731347365
5.3237731347365 21.3833194042095 31.555319404209502
18.6652268652635 27.7842268652635 13.3277731347365
9.1787731347365 16.2872268652635 5.395226865263503
22.022226865263498 4.9117731347364995 1.7562268652634998
8.3782268652635 27.954865673682505 2.8082268652634994
21.4247731347365 11.566680595790501 15.421226865263499
20.8907731347365 25.8387731347365 20.939773134736498
4.4422268652635 6.880226865263502 11.5092268652635
24.2667731347365 4.677226865263499 23.8817731347365
22.286226865263494 19.888226865263498 7.601226865263499
20.2523194042095 1.8296805957904922 30.268226865263493
6.4077731347365 6.030226865263501 2.562773134736501
2.0452268652635013 15.669226865263504 25.675226865263504
31.4457731347365 9.6862268652635 18.764226865263502
1.934773134736501 13.0897731347365 7.051226865263494
16.5942268652635 2.178226865263504 19.1742268652635
21.9787731347365 5.4837731347365 3.7367731347365005
18.099773134736502 28.574226865263505 14.218226865263496
22.956319404209502 4.130319404209498 3.370773134736501
30.927319404209502 20.017319404209502 18.7077731347365
11.156226865263498 29.437865673682495 23.846319404209503
10.7107731347365 15.090680595790502 14.4912268652635
6.058226865263499 29.7083194042095 29.643226865263493
12.0697731347365 5.626773134736501 21.8292268652635
23.024226865263493 4.8312268652634955 23.584226865263496
22.7237731347365 3.607226865263499 21.5672268652635
25.3876805957905 18.020226865263503 20.506226865263493
21.5497731347365 15.9427731347365 30.527226865263493
4.050226865263504 23.5882268652635 21.559226865263504
19.0757731347365 29.1297731347365 13.9477731347365
18.1437731347365 28.128226865263507 3.2412268652634992
4.758773134736501 24.910773134736502 15.465226865263496
27.766226865263498 19.145226865263503 31.5207731347365
21.502226865263502 10.9377731347365 18.5237731347365
12.5307731347365 4.504773134736499 23.7797731347365
5.5242268652635005 1.9676805957904975 5.9047731347365
5.947319404209498 32.0847731347365 4.748773134736501
16.509773134736502 23.753773134736498 30.735319404209502
3.8932268652635003 21.9617731347365 1.0432268652634988
24.745865673682502 16.3677731347365 11.6897731347365
15.971226865263496 23.750773134736498 30.6017731347365
3.026226865263503 20.295226865263494 2.0702268652635
7.6952268652635 22.1467731347365 23.560226865263495
18.612411943155493 1.7587731347365008 12.1597731347365
26.958226865263505 13.6097731347365 22.747226865263507
28.6663194042095 27.6747731347365 19.8017731347365
21.7192268652635 22.0757731347365 12.075226865263495
5.941680595790501 22.0747731347365 1.1892268652634996
8.5187731347365 31.4567731347365 8.5077731347365
23.1987731347365 16.5582268652635 29.357226865263506
22.346226865263496 20.5207731347365 6.404680595790495
14.695319404209503 22.3683194042095 19.53268059579051
17.6037731347365 29.053773134736502 28.128226865263507
2.5942268652635008 13.9447731347365 14.709773134736501
13.2567731347365 29.280226865263494 15.926226865263494
20.083865673682496 29.750773134736498 2.918773134736501
30.455226865263505 15.255226865263502 14.081773134736501
23.917226865263494 25.2072268652635 15.931226865263504
22.2573194042095 16.585680595790507 0.2592268652634999
32.1617731347365 15.0387731347365 31.8562268652635
23.166226865263503 27.4587731347365 10.392226865263503
27.9727731347365 29.361773134736502 29.000319404209502
28.785226865263503 20.496680595790508 20.2597731347365
8.334226865263496 4.7712268652635 11.0762268652635
3.1287731347365 2.532226865263503 17.9692268652635
11.407226865263503 31.8437731347365 25.0317731347365
28.5217731347365 6.941226865263495 10.457680595790492
0.08977313473650028 13.3932268652635 13.0907731347365
4.748773134736501 6.922134326317504 23.341411943155492
3.3442268652635008 11.377680595790494 21.395226865263503
23.128226865263507 14.812773134736501 31.5547731347365
3.9672268652634983 6.241226865263499 31.2327731347365
23.479226865263506 13.0552268652635 7.8657731347365
12.706773134736501 7.122680595790499 20.843319404209502
24.9297731347365 13.483226865263497 12.663226865263503
2.9367731347365 21.871226865263502 0.1352268652634976
12.898773134736501 4.988226865263499 0.6252268652634996
13.0762268652635 10.076680595790492 12.059680595790496
1.6752268652635038 10.618226865263502 22.625226865263507
25.552319404209502 5.1407731347365 24.852226865263496
4.4092268652634985 10.773773134736501 22.607226865263506
24.0852268652635 19.2547731347365 0.5716805957904967
6.9657731347365 20.4907731347365 31.486773134736502
25.023319404209502 27.976226865263506 19.2767731347365
11.529226865263503 30.6627731347365 27.3412268652635
11.1827731347365 16.295226865263494 13.3807731347365
24.5127731347365 4.241226865263499 26.236773134736502
28.3733194042095 5.982773134736501 8.677680595790505
15.0937731347365 31.3142268652635 8.3477731347365
23.5767731347365 23.2357731347365 0.37768059579049407
11.7177731347365 6.069226865263495 20.089680595790497
8.782226865263503 13.731226865263501 26.544773134736502
8.981226865263501 22.2627731347365 25.5947731347365
30.0283194042095 15.9717731347365 13.5627731347365
23.7427731347365 9.5732268652635 29.197226865263495
21.208226865263505 24.998226865263497 26.053773134736502
19.298226865263494 29.9842268652635 26.4087731347365
30.217226865263505 6.465226865263496 8.367680595790503
24.6293194042095 2.7006805957905016 26.7907731347365
24.188226865263495 14.2597731347365 11.7587731347365
19.379226865263497 29.693226865263505 11.755226865263502
1.5132268652634977 0.5312268652634984 18.003226865263507
25.753226865263507 28.622226865263507 22.724680595790502
12.635226865263498 1.7606805957905038 17.2257731347365
29.6532268652635 5.6052268652634964 7.2637731347365
0.442680595790506 27.9183194042095 23.4782268652635
23.810226865263495 25.9723194042095 6.4467731347365
3.6866805957905058 25.509226865263493 11.6922268652635
5.258226865263502 5.688226865263495 31.9523194042095
19.1177731347365 26.280226865263494 13.118226865263502
13.764680595790495 4.283226865263501 31.149226865263493
15.2592268652635 12.8722268652635 23.8127731347365
22.827226865263505 25.2617731347365 1.3472268652635009
26.601226865263506 10.043134326317514 29.375773134736498
30.794226865263504 15.2857731347365 23.8307731347365
20.3547731347365 25.318226865263505 26.4177731347365
18.2853194042095 1.4087731347365011 19.848226865263506
26.687226865263504 29.419773134736502 22.395226865263503
8.6372268652635 14.813226865263495 24.4953194042095
8.2832268652635 20.2647731347365 9.5683194042095
27.6946805957905 18.3207731347365 31.727773134736502
25.7587731347365 18.0127731347365 13.272226865263498
11.828226865263495 25.730773134736502 14.851319404209502
24.515226865263493 8.856319404209504 11.8557731347365
21.224773134736502 16.4407731347365 31.0937731347365
14.6552268652635 8.737226865263501 10.215226865263496
30.0027731347365 12.7667731347365 31.0973194042095
31.2342268652635 13.584226865263496 7.572226865263495
0.7632268652634977 12.607773134736501 6.856226865263501
26.033226865263494 12.0212268652635 4.722773134736499
4.9517731347365 3.4358656736824997 21.2297731347365
16.5337731347365 26.930773134736498 1.5171343263175032
4.7102268652635 10.352226865263496 23.739226865263497
11.2162268652635 28.8187731347365 28.6187731347365
20.211226865263505 29.5787731347365 1.2157731347364997
22.6677731347365 3.0867731347365 18.6353194042095
13.040680595790505 29.790865673682504 27.8683194042095
21.532226865263503 19.171319404209502 6.091773134736501
22.7317731347365 21.4332268652635 11.0257731347365
7.492773134736501 4.4077731347365 10.154226865263503
10.2237731347365 29.715226865263496 0.3852268652634976
25.3607731347365 14.979226865263499 21.8232268652635
20.364226865263497 30.783226865263494 27.727773134736502
9.4052268652635 19.303226865263504 16.092226865263505
20.6376805957905 6.083226865263498 4.9017731347365
31.015226865263493 2.3386805957904926 30.989773134736502
0.10322686526350111 30.661226865263494 28.1373194042095
15.171319404209502 22.9657731347365 18.869226865263506
9.3322268652635 23.505226865263502 19.7637731347365
22.416773134736502 17.559226865263504 31.749226865263502
15.3472268652635 7.9597731347364995 6.402226865263501
15.9362268652635 25.818226865263505 2.6092268652635013
2.978226865263501 0.7582268652635022 21.919773134736502
21.8017731347365 3.8327731347365006 24.875773134736498
19.2312268652635 27.1436805957905 13.493226865263502
4.200773134736501 18.9993194042095 2.904680595790495
16.2677731347365 20.0277731347365 14.429319404209497
14.252226865263502 31.3137731347365 8.2543194042095
6.476226865263499 0.4222268652635037 29.892411943155494
0.5212268652635004 7.2232268652634986 17.27968059579051
22.0633194042095 25.3947731347365 0.5352268652635033
13.2637731347365 12.544226865263504 23.980773134736502
16.1807731347365 1.6382268652634977 22.047773134736502
12.179226865263495 7.8467731347365 17.255226865263502
24.2027731347365 19.9553194042095 7.6057731347365
25.3333194042095 30.2667731347365 20.3817731347365
30.3903194042095 21.0887731347365 7.724226865263496
23.967226865263505 19.3117731347365 31.053226865263504
24.4863194042095 25.13668059579051 14.555134326317514
4.282226865263503 5.5237731347365 29.5373194042095
31.5773194042095 15.0122268652635 6.9387731347365005
21.3412268652635 6.7337731347365 0.9186805957905051
19.9867731347365 28.423226865263494 13.3427731347365
14.9022268652635 0.10122686526349867 30.561773134736498
11.7947731347365 17.2847731347365 1.2316805957904933
5.412773134736501 22.2707731347365 23.513226865263498
3.7372268652635015 25.653680595790505 14.4867731347365
32.019773134736496 27.750773134736498 25.491773134736498
15.2012268652635 8.592680595790497 10.1147731347365
28.869773134736498 30.3203194042095 5.910226865263503
22.6247731347365 12.559773134736501 18.1097731347365
17.0337731347365 1.5377731347365007 17.346226865263496
13.110226865263499 23.328319404209502 17.7547731347365
2.216773134736501 16.681226865263504 30.0837731347365
3.202680595790497 20.564773134736498 16.095226865263506
15.2472268652635 8.959226865263496 6.397680595790504
23.2467731347365 15.5887731347365 31.064773134736498
7.205226865263505 30.7627731347365 11.049226865263499
18.9932268652635 1.9867731347365005 20.5283194042095
31.2193194042095 3.6777731347364995 10.490226865263502
26.2933194042095 24.867773134736503 5.926680595790501
25.6183194042095 28.644226865263498 18.098226865263506
31.578319404209502 15.3997731347365 8.450773134736501
13.609680595790493 8.2772268652635 20.4557731347365
5.434773134736501 7.2916805957904955 11.8547731347365
15.775680595790504 21.2437731347365 19.436680595790506
30.355226865263496 23.4207731347365 10.426226865263494
29.526226865263503 6.060226865263495 7.428773134736501
17.592226865263505 13.2222268652635 10.129680595790504
27.4903194042095 27.4857731347365 17.4272268652635
23.8097731347365 11.6707731347365 18.461226865263505
21.2987731347365 4.981319404209504 4.644226865263498
1.0602268652634947 13.646319404209503 13.175226865263504
6.5677731347365 24.869319404209502 22.0797731347365
5.367134326317512 25.2167731347365 14.4302268652635
26.3233194042095 13.197226865263495 22.5027731347365
25.9152268652635 9.538226865263503 29.0083194042095
16.0457731347365 16.8067731347365 11.5927731347365
30.613773134736498 12.1977731347365 31.8363194042095
26.1553194042095 30.4677731347365 20.929226865263495
1.766680595790504 8.545226865263501 16.813226865263495
12.9697731347365 5.089226865263498 19.273226865263503
26.7737731347365 13.559773134736501 21.9752268652635
24.834226865263496 31.265226865263493 22.2607731347365
8.694226865263495 8.717226865263498 22.8457731347365
12.6337731347365 6.767773134736501 21.825226865263495
4.714680595790497 20.604226865263506 1.2002268652634953
22.387226865263493 9.301226865263494 9.556226865263504
4.806680595790496 25.8567731347365 16.1592268652635
30.809773134736503 12.2167731347365 30.6203194042095
11.382680595790504 23.7803194042095 8.985773134736501
23.7037731347365 22.0277731347365 7.883319404209498
22.099226865263496 8.014773134736501 3.860226865263499
5.271773134736501 29.8223194042095 7.7917731347365
8.446226865263505 16.7617731347365 19.4452268652635
8.9967731347365 8.873226865263497 21.7902268652635
23.7207731347365 4.0677731347365 26.2813194042095
10.5307731347365 28.2273194042095 23.0792268652635
24.0303194042095 4.170226865263501 21.407226865263503
5.161226865263501 21.1028656736825 31.3043194042095
13.8267731347365 10.297226865263504 11.940680595790496
20.485226865263506 30.006226865263493 11.944226865263495
21.875319404209502 18.3087731347365 6.208226865263498
31.2623194042095 15.125319404209502 13.992226865263497
31.150226865263498 12.8327731347365 6.776680595790495
13.5977731347365 19.4937731347365 13.9422268652635
3.8252268652634953 25.500319404209502 18.0486805957905
28.0363194042095 6.290226865263499 28.066226865263495
11.818226865263505 19.059226865263504 0.5052268652635021
29.427773134736498 23.991226865263506 12.5517731347365
5.8626805957904935 30.081226865263496 10.951319404209503
3.5366805957905 21.227773134736502 1.1152268652635016
30.494773134736498 19.991226865263506 17.379226865263497
23.789226865263494 7.346226865263496 4.242226865263497
22.166773134736502 9.431226865263504 17.732680595790498
4.472773134736499 2.5412268652635035 19.544226865263504
10.2247731347365 24.3673194042095 30.5473194042095
16.065226865263504 29.6857731347365 9.566319404209498
15.79168059579051 24.933319404209502 31.254865673682502
12.1552268652635 8.9632268652635 4.986680595790503
14.8722268652635 23.267226865263503 27.7867731347365
20.9067731347365 19.5017731347365 19.649226865263493
25.282226865263503 6.492773134736501 23.273319404209502
0.3262268652635001 14.6147731347365 30.4707731347365
10.8052268652635 30.8583194042095 26.8987731347365
5.7177731347365 23.6622268652635 24.1747731347365
30.9657731347365 25.1347731347365 3.184226865263504
4.707680595790492 0.13922686526350248 26.9217731347365
5.796226865263499 6.4437731347364995 28.4717731347365
23.6387731347365 25.959680595790502 17.5247731347365
11.709226865263496 9.168773134736501 15.928226865263504
25.6007731347365 30.7597731347365 22.133226865263502
27.5467731347365 6.373226865263497 29.5197731347365
14.860226865263499 13.490680595790494 25.9067731347365
5.938319404209498 19.2237731347365 1.8392268652634982
4.942680595790506 31.939773134736498 4.978226865263501
25.7812268652635 14.1027731347365 24.239773134736502
20.25868059579051 28.500773134736498 3.206680595790502
15.3657731347365 23.0713194042095 27.9737731347365
23.468226865263496 10.648226865263503 18.3547731347365
9.3352268652635 16.2007731347365 19.447226865263495
2.9737731347365006 18.3322268652635 12.2927731347365
0.1382268652634977 1.9072268652635032 0.6776805957905054
30.977226865263496 14.881680595790499 7.995226865263497
13.5007731347365 19.7647731347365 7.151226865263503
18.000226865263507 2.8252268652634953 20.025226865263498
1.356134326317516 10.9972268652635 22.944226865263495
30.669773134736502 24.0973194042095 3.184773134736501
21.779226865263503 22.229680595790498 8.423226865263501
7.367773134736501 23.803226865263504 24.879226865263497
18.7257731347365 28.651226865263503 2.9776805957905026
15.7162268652635 15.91668059579051 10.3632268652635
24.6947731347365 16.9767731347365 23.7777731347365
2.8787731347365 27.6888656736825 29.437773134736503
13.7397731347365 29.8803194042095 9.6557731347365
4.772226865263498 30.0207731347365 30.703226865263495
17.8352268652635 8.7626805957905 23.0937731347365
2.7976805957904958 21.4387731347365 30.5067731347365
21.0817731347365 29.311773134736498 14.2497731347365
14.2742268652635 21.807226865263495 18.891226865263498
20.910773134736502 10.665226865263499 17.0167731347365
31.311773134736498 11.3022268652635 31.2407731347365
4.934773134736501 8.580226865263505 28.3937731347365
1.8082268652634994 22.2787731347365 29.804226865263495
10.459773134736501 1.9902268652635016 14.7277731347365
26.0207731347365 20.319226865263495 6.6607731347365
20.5093194042095 26.9392268652635 21.831226865263496
23.095226865263506 5.4467731347365 3.5628656736825093
30.069226865263495 3.904680595790495 0.4652268652634959
6.026226865263503 9.456773134736501 0.6366805957904944
2.0397731347364996 18.943226865263505 9.930773134736501
9.4912268652635 15.787226865263499 17.945773134736502
11.950680595790502 3.9527731347365 0.337680595790502
16.5642268652635 23.14268059579051 28.7873194042095
31.544773134736502 5.591226865263501 11.188680595790501
16.5227731347365 28.575226865263495 2.353226865263501
15.2776805957905 9.697680595790501 14.1117731347365
24.3016805957905 23.638226865263498 0.8752268652634996
28.425773134736502 19.657226865263503 18.3337731347365
14.0857731347365 17.4116805957905 6.649773134736501
13.741773134736501 4.479226865263499 0.37768059579049407
31.4323194042095 9.4847731347365 0.18622686526349952
18.2477731347365 0.09668059579050237 21.7387731347365
3.4232268652635014 23.016226865263498 21.2807731347365
20.5267731347365 16.3682268652635 3.509680595790499
8.3077731347365 25.7597731347365 31.087226865263496
7.123773134736501 30.3593194042095 9.362226865263501
28.3592268652635 30.3293194042095 11.211226865263498
26.560226865263495 13.4687731347365 23.994319404209502
12.178226865263504 29.8943194042095 2.8517731347365007
12.3007731347365 27.953226865263495 16.5213194042095
1.9166805957904955 32.1747731347365 20.3193194042095
19.831226865263496 13.225226865263501 20.9047731347365
17.6127731347365 27.899226865263493 1.0742268652635047
19.733773134736502 6.234226865263501 16.9692268652635
5.450226865263495 9.666680595790496 24.083226865263505
0.17668059579050066 11.2697731347365 0.004773134736499429
9.112226865263501 24.801226865263494 19.0257731347365
9.967680595790497 25.8383194042095 14.2012268652635
3.0132268652634977 3.5856805957904925 20.2207731347365
20.1772268652635 27.4023194042095 12.964226865263498
5.272226865263498 26.564319404209503 16.426226865263494
26.1577731347365 17.6947731347365 13.316226865263495
23.4077731347365 2.786226865263501 25.7043194042095
30.680319404209502 14.703773134736501 14.8387731347365
9.7836805957905 17.766226865263498 18.4267731347365
3.0226805957905043 7.2572268652634975 17.4437731347365
29.4627731347365 22.5027731347365 10.477226865263496
4.185680595790501 30.3223194042095 29.1682268652635
13.574680595790497 27.4703194042095 13.6317731347365
22.6017731347365 19.8232268652635 31.7072268652635
28.5097731347365 30.268226865263493 28.5817731347365
13.434226865263504 9.583680595790497 11.1537731347365
3.7592268652635 8.2412268652635 7.5127731347365
5.3262268652635 32.1403194042095 27.5737731347365
6.468226865263496 14.4283194042095 26.8853194042095
14.7757731347365 21.0907731347365 18.8303194042095
1.7342268652635013 16.544226865263504 28.8973194042095
16.1107731347365 15.3777731347365 11.9617731347365
15.4177731347365 20.4217731347365 15.0427731347365
26.645226865263503 3.9616805957904973 13.855226865263496
0.7117731347365002 15.179226865263495 24.1247731347365
24.119773134736498 20.3447731347365 14.020865673682508
5.7027731347365 30.880226865263502 8.6522268652635
0.0066805957904989555 29.788773134736502 27.2827731347365
16.7902268652635 7.690773134736501 31.7607731347365
28.6397731347365 22.577226865263505 18.0217731347365
20.9242268652635 8.545226865263501 4.824680595790497
11.088773134736499 18.827226865263505 31.6122268652635
23.628773134736498 23.1763194042095 1.0122268652635
26.038773134736502 15.883226865263502 21.9903194042095
25.145226865263503 18.199226865263505 11.339680595790497
13.601226865263499 30.6157731347365 2.1127731347365
8.115680595790494 15.748226865263497 25.599773134736502
1.8182268652635045 20.4083194042095 10.441226865263495
8.8307731347365 20.722680595790507 25.5257731347365
30.1077731347365 20.3412268652635 18.930319404209502
24.5113194042095 8.3837731347365 10.383680595790494
30.7317731347365 14.222680595790493 14.039226865263501
4.7682268652635 31.9033194042095 12.050226865263504
12.8707731347365 21.090226865263496 1.5616805957905058
22.577680595790497 9.382226865263497 9.1417731347365
4.412226865263499 8.8187731347365 21.083226865263505
24.3837731347365 5.5447731347365 24.0942268652635
29.6917731347365 19.539226865263494 19.1217731347365
3.3197731347365007 1.5472268652635037 3.667319404209504
20.491226865263506 18.688226865263495 20.9327731347365
13.8657731347365 23.3877731347365 26.2627731347365
6.200773134736501 1.9646805957904974 28.4047731347365
20.075226865263495 26.378226865263507 21.390226865263493
2.4887731347364994 31.7927731347365 21.1567731347365
0.41477313473649957 15.104319404209502 23.9727731347365
11.1586805957905 22.818226865263505 10.6827731347365
1.5012268652634972 29.961226865263505 10.514773134736501
17.8477731347365 13.703226865263495 9.714226865263498
4.472773134736499 32.1437731347365 2.764773134736501
7.398226865263503 13.200319404209498 15.3707731347365
20.253226865263507 28.3407731347365 28.074226865263505
20.577226865263505 5.139773134736501 5.191773134736501
17.6627731347365 6.6027731347365 0.0862268652634981
31.530226865263494 17.2147731347365 30.0857731347365
3.783226865263501 2.238226865263499 19.557226865263495
8.805680595790506 10.473226865263499 23.2992268652635
14.4527731347365 7.085773134736501 19.4847731347365
1.4032268652634983 31.5947731347365 15.6767731347365
16.6287731347365 6.9067731347365005 30.927773134736498
29.9233194042095 20.276319404209502 26.497773134736498
24.4602268652635 1.0542268652634945 1.1136805957904983
26.805773134736498 30.2117731347365 20.2257731347365
9.8477731347365 9.322226865263495 15.764226865263502
28.4613194042095 10.669226865263504 0.3206805957905061
23.448680595790506 31.088134326317515 21.3457731347365
14.365226865263502 6.637680595790499 0.366134326317507
7.1392268652635025 22.9017731347365 25.739773134736502
23.4347731347365 6.1806805957905055 22.574226865263505
1.9572268652635003 26.867226865263497 13.2587731347365
5.5182268652635 11.813226865263495 10.5032268652635
31.312226865263504 9.360226865263499 16.384773134736502
15.731319404209504 25.6377731347365 23.2237731347365
9.919226865263504 29.932226865263495 24.1917731347365
16.6083194042095 32.0696805957905 19.1062268652635
15.685226865263495 21.149226865263493 4.880319404209498
10.4797731347365 2.826680595790492 14.3082268652635
10.2107731347365 16.4117731347365 13.346680595790502
0.8766805957905035 27.4453194042095 25.0787731347365
17.008226865263502 0.6466805957904995 21.1062268652635
2.505226865263502 1.0977731347364994 20.2047731347365
30.8687731347365 15.4457731347365 8.306773134736499
23.4117731347365 23.953226865263495 1.8626805957904935
31.126773134736503 16.9477731347365 23.5127731347365
30.907319404209503 4.4807731347365 2.0456805957905004
25.8532268652635 27.8457731347365 19.456319404209502
16.452226865263505 20.1947731347365 5.783226865263501
28.9967731347365 9.985773134736501 16.4237731347365
1.8982268652635028 13.4227731347365 6.4406805957904965
9.8872268652635 16.625319404209502 4.0152268652635
12.014773134736501 31.5183194042095 26.7067731347365
20.5063194042095 19.129226865263497 20.476226865263506
23.605226865263496 9.049226865263499 16.536226865263494
21.405226865263494 2.239226865263497 8.785226865263503
3.3296805957904922 5.726773134736501 30.3847731347365
22.8613194042095 8.1132268652635 1.9402268652635044
21.720226865263506 20.2657731347365 18.493680595790508
24.8207731347365 16.840226865263496 22.647226865263498
31.688226865263495 11.353226865263501 0.23422686526350134
3.7476805957904986 6.5167731347365 30.6457731347365
29.626773134736503 30.183773134736498 11.261226865263502
25.308773134736498 14.919226865263504 23.8817731347365
1.4132268652635034 22.7937731347365 31.8503194042095
13.669226865263504 18.529226865263503 7.3322268652635
1.086319404209501 28.368680595790508 23.068226865263505
16.9017731347365 28.462680595790502 2.5016805957905035
27.565773134736503 11.590773134736502 1.9417731347365006
9.956773134736501 24.522226865263498 31.5953194042095
25.5582268652635 20.211226865263505 5.404226865263503
2.438226865263495 12.200226865263495 31.8973194042095
22.3357731347365 18.9573194042095 6.4547731347365005
4.366680595790498 22.4497731347365 2.3937731347365006
31.9637731347365 15.136226865263502 30.8477731347365
6.0016805957905035 8.170226865263501 30.6903194042095
21.3502268652635 6.332680595790492 2.8782268652634997
0.18277313473650025 16.6497731347365 6.1867731347365
27.0757731347365 4.7446805957904985 16.453226865263495
28.7237731347365 27.4857731347365 21.5657731347365
5.9323194042094975 6.8717731347365 10.982226865263499
0.8666805957904984 12.3237731347365 0.4757731347364995
1.6306805957904942 15.179319404209497 6.5982268652634986
11.266226865263498 28.896226865263493 2.4092268652634985
9.8517731347365 4.337319404209499 10.420226865263501
4.672226865263504 5.3793194042095 0.671226865263499
30.2338656736825 12.971319404209499 7.6007731347364995
23.4497731347365 11.607226865263499 27.977773134736502
23.3197731347365 4.659773134736501 25.995226865263497
8.289226865263501 24.776226865263503 29.6963194042095
28.1062268652635 6.7836805957905 8.325773134736501
15.770226865263503 4.722226865263501 31.050226865263504
6.831773134736501 14.461319404209501 27.227226865263496
5.975680595790493 29.000319404209502 9.005226865263502
21.679226865263495 19.396226865263493 31.2263194042095
26.3887731347365 29.280226865263494 23.376226865263497
19.3717731347365 0.8252268652634953 28.7893194042095
16.720134326317506 21.3412268652635 6.7627731347365
27.062773134736503 30.6337731347365 28.4797731347365
29.2697731347365 9.4797731347365 18.2432268652635
17.4977731347365 15.343226865263496 9.8523194042095
8.6277731347365 6.4946805957904985 10.9912268652635
30.9513194042095 14.255226865263502 5.523226865263503
11.8467731347365 25.3907731347365 7.129773134736499
10.8817731347365 25.8077731347365 13.4697731347365
5.935680595790501 19.1653194042095 31.613226865263506
27.5973194042095 16.4147731347365 17.883226865263502
16.928226865263504 23.2567731347365 31.2297731347365
6.258773134736501 11.998226865263497 22.2167731347365
14.882226865263497 31.4632268652635 7.276319404209499
31.8897731347365 14.8377731347365 14.791226865263503
13.9433194042095 7.5732268652635 12.450773134736501
5.2527731347365005 6.197773134736501 0.1686805957905051
26.410226865263503 26.66668059579051 7.1727731347365005
16.256773134736502 30.241226865263506 7.025226865263498
20.6317731347365 21.2992268652635 10.150226865263498
17.000226865263507 13.6432268652635 9.904680595790495
19.979226865263506 29.303773134736502 10.885226865263498
22.881226865263493 1.252226865263502 7.7257731347364995
4.374226865263502 23.7107731347365 22.8427731347365
6.4116805957905 7.880680595790494 25.5693194042095
18.7493194042095 28.4087731347365 1.4832268652634966
21.3297731347365 6.7062268652634955 4.926680595790501
29.047773134736502 6.171773134736501 10.457680595790492
16.215226865263496 15.5697731347365 10.245226865263497
13.195680595790506 0.21177313473650017 8.122319404209502
31.9537731347365 2.4176805957905003 1.3267731347365004
6.312680595790496 21.557226865263495 1.5672268652634997
11.5612268652635 29.7437731347365 23.688226865263495
12.6367731347365 28.9607731347365 8.3507731347365
30.044773134736502 11.9236805957905 1.404226865263503
1.1987731347365003 9.3837731347365 17.9997731347365
18.9473194042095 0.0066805957904989555 29.5683194042095
15.1892268652635 22.236773134736502 28.419773134736502
26.369773134736498 21.2387731347365 26.0987731347365
11.965226865263496 17.8673194042095 1.4706805957904976
4.237319404209504 31.1023194042095 2.8122268652635043
6.067134326317515 6.2502268652635 1.5866805957904973
2.8747731347365004 23.0517731347365 0.20222686526350486
27.1813194042095 30.1033194042095 28.8577731347365
6.052226865263499 5.3427731347365 1.4486805957905062
20.5543194042095 21.986773134736502 11.645226865263503
18.3657731347365 15.4847731347365 18.625226865263507
0.23177313473649974 13.198319404209503 7.1577731347365
14.4727731347365 3.8612268652634967 30.437773134736503
28.941226865263495 21.5577731347365 10.221226865263496
29.0792268652635 24.5737731347365 11.1147731347365
19.8387731347365 26.9587731347365 12.4757731347365
17.4283194042095 31.8303194042095 21.1847731347365
11.9077731347365 8.499226865263502 16.363226865263506
20.1313194042095 27.253226865263507 15.006319404209503
6.208226865263498 6.9632268652635005 30.8033194042095
23.9247731347365 16.1753194042095 30.3457731347365
32.101226865263506 7.096226865263496 9.8977731347365
4.993680595790494 29.1077731347365 30.452226865263505
17.871226865263502 0.9557731347364999 19.0897731347365
21.456226865263496 23.5047731347365 27.1742268652635
3.8652268652635016 8.017226865263503 30.1913194042095
21.1002268652635 20.8967731347365 8.292226865263501
4.1586805957905 21.512226865263493 17.7477731347365
14.079680595790492 24.696226865263505 26.739226865263497
12.8782268652635 28.813226865263495 13.566226865263495
29.385680595790504 6.3247731347365 8.3187731347365
23.355226865263496 9.988680595790498 28.8393194042095
6.2337731347365 11.791134326317504 15.4527731347365
7.6922268652635 31.364773134736502 10.035319404209499
20.503226865263507 9.619680595790499 10.566319404209498
0.5237731347364996 14.292319404209504 15.886226865263502
16.006773134736502 25.590319404209502 2.1181343263175023
9.357773134736501 11.7757731347365 2.3822268652634975
7.479773134736501 12.6187731347365 13.2137731347365
23.1622268652635 6.745773134736501 9.9197731347365
24.0733194042095 24.7827731347365 1.6987731347365003
25.642319404209502 30.724773134736502 20.7777731347365
20.3177731347365 19.254226865263497 21.4517731347365
21.5877731347365 24.7787731347365 30.4902268652635
8.7072268652635 12.099226865263496 31.2872268652635
16.289226865263494 6.919226865263504 30.4152268652635
28.244319404209502 15.856226865263501 17.6387731347365
1.312773134736501 15.0607731347365 8.437226865263504
2.9482268652635 9.431773134736499 7.5447731347365
17.206226865263496 23.0497731347365 17.7157731347365
6.006680595790499 6.5527731347364995 2.739680595790503
1.8072268652634946 1.6882268652634949 20.5133194042095
28.1557731347365 29.7023194042095 19.9997731347365
24.3827731347365 4.469773134736501 22.239226865263497
28.9097731347365 24.871226865263502 12.1567731347365
3.094773134736501 26.0337731347365 12.8647731347365
10.7567731347365 28.321226865263505 13.4117731347365
17.628226865263507 23.7287731347365 29.2837731347365
24.5762268652635 7.2147731347365 10.620226865263497
27.922226865263504 25.8093194042095 1.5332268652635008
25.5027731347365 28.163773134736502 18.9632268652635
20.699226865263505 29.520226865263503 12.551226865263494
22.1677731347365 21.0027731347365 6.646773134736501
14.905773134736501 13.650680595790504 8.837226865263496
24.0672268652635 10.650680595790504 28.9693194042095
2.077226865263505 11.6892268652635 31.233773134736502
30.1243194042095 26.4387731347365 28.303773134736502
2.3326805957904924 13.174773134736501 13.743226865263502
5.1057731347365 11.0517731347365 9.083226865263498
17.110226865263506 27.7342268652635 0.610226865263499
27.189773134736498 28.715226865263496 18.932226865263495
18.468226865263496 1.9542268652635002 21.9662268652635
28.3827731347365 28.446226865263505 22.1827731347365
31.6122268652635 17.0237731347365 22.9122268652635
21.7132268652635 6.9362268652634995 1.9062268652634984
2.760680595790504 23.6647731347365 29.587226865263496
5.531680595790505 8.543319404209502 23.2287731347365
24.872773134736498 0.9522268652635049 8.409226865263498
12.453773134736501 6.746226865263502 20.0267731347365
25.122319404209502 29.908226865263494 21.102226865263496
19.5097731347365 30.6892268652635 25.467226865263505
9.602226865263496 11.9632268652635 10.1897731347365
12.0747731347365 27.7777731347365 14.2742268652635
21.5792268652635 6.368226865263502 5.557226865263495
9.9737731347365 9.5246805957905 29.357226865263506
24.871226865263502 14.181226865263504 21.6457731347365
31.0947731347365 7.151226865263503 10.961226865263498
12.921680595790505 31.940773134736503 8.982319404209502
22.7707731347365 1.8402268652634959 9.2057731347365
12.904226865263503 2.2347731347365 4.410226865263503
1.0006805957904987 29.538226865263503 25.2697731347365
3.0782268652634954 0.44222686526349975 20.1683194042095
14.355226865263496 25.5522268652635 8.1887731347365
12.7077731347365 6.3017731347365 20.9527731347365
13.9972268652635 21.877226865263502 12.1227731347365
11.8782268652635 3.4937731347365 32.0037731347365
20.0683194042095 27.8477731347365 11.6607731347365
20.4437731347365 18.154226865263503 13.865226865263502
18.6952268652635 1.564680595790506 21.0642268652635
11.046226865263499 31.150226865263498 26.565226865263504
28.507226865263497 20.3367731347365 18.8813194042095
30.1687731347365 13.298226865263501 0.17331940420950076
5.624226865263502 4.4572268652635 20.9737731347365
6.051226865263494 24.3913194042095 23.286226865263494
14.369680595790499 24.745773134736503 28.7493194042095
9.122773134736502 26.0107731347365 30.8857731347365
12.7897731347365 27.8777731347365 25.349773134736502
3.0402268652634987 22.7747731347365 30.1507731347365
30.4767731347365 3.5157731347365004 1.5572268652634946
2.8252268652634953 2.4907731347365 16.477226865263496
13.3067731347365 9.1492268652635 11.1312268652635
26.714226865263505 28.251773134736503 18.291226865263503
22.7132268652635 10.874226865263502 16.3307731347365
21.8913194042095 8.1037731347365 10.924226865263499
0.21577313473649973 8.568680595790497 17.6357731347365
10.9167731347365 28.3227731347365 23.6997731347365
8.072226865263495 14.6522268652635 14.840226865263496
18.4632268652635 31.1273194042095 18.0147731347365
2.4232268652635014 2.939680595790506 18.1677731347365
22.7282268652635 20.1967731347365 5.746226865263502
2.399773134736501 13.2667731347365 14.3217731347365
3.7006805957905016 11.0477731347365 22.3022268652635
11.510226865263498 8.746226865263502 3.8366805957904973
9.809226865263504 26.0093194042095 13.3557731347365
13.2607731347365 25.4097731347365 7.675680595790496
30.1437731347365 8.764226865263502 11.674773134736501
17.047226865263504 18.688226865263495 0.15722686526350316
24.1647731347365 14.242226865263497 23.3327731347365
4.6586805957905 28.421680595790505 28.194226865263495
6.6097731347365 31.4433194042095 29.203226865263495
13.8777731347365 23.9206805957905 28.1993194042095
31.867226865263497 4.736226865263497 31.203226865263495
0.9736805957904977 14.668226865263499 5.533226865263501
22.541226865263503 1.1832268652634994 9.8417731347365
21.443226865263505 28.9542268652635 12.5217731347365
25.930773134736498 4.180319404209502 25.018226865263493
7.6952268652635 6.444773134736501 11.445680595790506
